# .PCD v0.7 - Point Cloud Data file format
VERSION 0.7
FIELDS x y z
SIZE 4 4 4
TYPE F F F
COUNT 1 1 1
WIDTH 1448
HEIGHT 1
VIEWPOINT 0 0 0 1 0 0 0
POINTS 1448
DATA ascii
0.029141899 0.89232397 -0.0097434996
-0.091170497 0.89240998 -0.0085607003
0.0304887 0.89243698 -0.0072770002
0.0345653 0.89257503 0.0003093
0.036944602 0.89217299 0.0086263996
0.0380392 0.89221197 0.0149575
-0.101673 0.892744 0.015663501
0.038690399 0.89199501 0.017604001
0.039786901 0.89236701 0.0251092
-0.105224 0.892268 0.026273601
0.041099299 0.892699 0.031097099
0.041969098 0.89229 0.034235299
0.042397 0.89270103 0.037723701
-0.108557 0.89210302 0.038175698
0.0429741 0.89205402 0.049662098
-0.113091 0.89225 0.0561096
0.043203998 0.892398 0.061214101
0.043136399 0.89202702 0.0642443
-0.113512 0.89291298 0.066478297
0.0428061 0.89212602 0.067623504
0.042624298 0.89217401 0.070326298
-0.113271 0.89250797 0.070019998
0.042007901 0.89252597 0.0740619
0.041758001 0.89209801 0.076935798
0.041051999 0.89259601 0.080942698
-0.106739 0.89251399 0.086114198
0.0401945 0.89203203 0.0869627
-0.105639 0.892456 0.088597201
0.039401401 0.89227998 0.089689903
0.038511202 0.89239597 0.092432901
0.036266401 0.89168698 0.098189898
-0.103711 0.89202797 0.098699696
-0.107349 0.89265501 0.099506103
0.0346299 0.89266801 0.100389
-0.108259 0.89300698 0.10215
-0.107304 0.89209598 0.105775
0.0294143 0.89271402 0.10687
-0.101926 0.89365101 0.107249
0.0266103 0.89249098 0.110479
-0.103193 0.892506 0.112646
0.023115501 0.89279902 0.114795
0.0168125 0.89283299 0.123757
0.0097625004 0.89234102 0.13502499
0.0068675 0.89212 0.137229
-0.085377298 0.89268702 0.136792
0.0047698999 0.89237201 0.138915
-0.062911801 0.89232498 0.13915201
-0.019662799 0.891909 0.14866
-0.049593002 0.89249903 0.153246
-0.025481099 0.89229399 0.154779
0.196632 0.893731 -0.169935
0.194059 0.89368302 -0.16849899
0.19019499 0.893677 -0.165922
-0.196161 0.89307898 -0.16231801
0.18276399 0.89339501 -0.160457
0.18043099 0.89316398 -0.15890101
-0.191346 0.89358902 -0.159079
-0.187682 0.89350897 -0.157001
0.175823 0.89384902 -0.155793
0.173416 0.893691 -0.15432601
-0.18157201 0.89333999 -0.154044
0.171042 0.893489 -0.152854
-0.178535 0.893852 -0.152651
0.16856 0.89339399 -0.151492
-0.172888 0.89292198 -0.150984
0.16601001 0.89339501 -0.15009101
-0.165986 0.893682 -0.149204
0.16285799 0.89384598 -0.148081
-0.155839 0.89318699 -0.146127
0.149983 0.89342898 -0.144935
0.14641 0.89379299 -0.144353
-0.15255301 0.89388502 -0.14424001
0.138661 0.89331299 -0.1425
0.136005 0.89372498 -0.14173301
0.127893 0.893457 -0.141267
0.122151 0.89342898 -0.14091501
-0.14757399 0.89370602 -0.14145499
0.13222 0.89431399 -0.140963
0.119587 0.894117 -0.14016899
0.111972 0.89303601 -0.13973799
-0.143115 0.89302301 -0.13953
0.109084 0.893471 -0.138629
0.106308 0.89367998 -0.137556
-0.13611101 0.89356399 -0.13612901
0.0938408 0.89323902 -0.13196
0.091354802 0.89313298 -0.130615
0.088839598 0.893098 -0.129206
0.085878 0.89349699 -0.127031
-0.13055 0.89399701 -0.126175
0.0840455 0.894054 -0.124986
0.080454998 0.89377099 -0.119506
-0.12778901 0.89397502 -0.120027
-0.126021 0.89380699 -0.117527
-0.124068 0.89313298 -0.114947
-0.091588102 0.89309198 -0.110935
-0.096912101 0.89301401 -0.111113
-0.089611501 0.89342701 -0.107958
-0.11732 0.89407599 -0.108473
-0.092306003 0.89380199 -0.10475
-0.096743502 0.89293498 -0.105863
0.0714847 0.89361799 -0.103974
-0.089434698 0.893323 -0.103903
0.070104003 0.89376199 -0.101486
-0.110893 0.89411998 -0.100709
0.068949603 0.893574 -0.098807901
-0.109327 0.89384001 -0.098414101
0.067698799 0.89360702 -0.094920799
0.048246399 0.89391899 -0.092003599
-0.078829102 0.89281499 -0.090172596
0.0669102 0.893314 -0.091028497
0.052972201 0.89288801 -0.088948697
0.0480197 0.89428198 -0.089246698
-0.101898 0.89416599 -0.087788098
0.066641703 0.89359498 -0.086176999
0.047529601 0.89478898 -0.086428203
-0.076707996 0.89303899 -0.086287297
-0.10032 0.89389098 -0.084160797
0.065697499 0.89319599 -0.077810198
-0.097949103 0.89396298 -0.077989697
0.049455699 0.89319903 -0.0767904
-0.074957997 0.894063 -0.077221997
-0.074988402 0.893004 -0.074601904
0.048548002 0.89392298 -0.073278002
-0.0974437 0.89356399 -0.072880402
0.048574299 0.89351702 -0.070336401
0.0646355 0.893879 -0.069308199
-0.095462002 0.894144 -0.068419002
0.0642941 0.89365202 -0.066613801
0.047366001 0.89422202 -0.065967202
-0.094085097 0.894077 -0.064628802
0.047211599 0.89378101 -0.062591404
0.063660502 0.89357001 -0.061128899
-0.070866801 0.89352697 -0.061425898
0.0460237 0.89375299 -0.058401398
-0.088493198 0.89363599 -0.0589035
0.063138597 0.89380699 -0.057289399
-0.068445101 0.89349198 -0.0573867
-0.082797103 0.89384902 -0.0569169
0.044839598 0.89415801 -0.054636698
-0.074352197 0.89369702 -0.055358499
-0.0679591 0.89381301 -0.051990699
0.061564401 0.893067 -0.050649799
0.044099201 0.89436501 -0.051041801
-0.066727899 0.89420801 -0.048017301
0.0601211 0.89380699 -0.047232501
0.044564001 0.89387399 -0.0471243
0.043823399 0.89397597 -0.044094801
-0.067683302 0.89359301 -0.044466201
0.057348501 0.89376098 -0.0435692
0.046656899 0.893022 -0.041490499
0.0199176 0.89358598 -0.040434901
-0.070318997 0.89350897 -0.039322801
0.052779499 0.89445502 -0.0393553
0.0500919 0.89472598 -0.039062701
0.0189956 0.89339697 -0.035496499
-0.074705303 0.894117 -0.032139
-0.0769125 0.89358097 -0.030342599
0.019925 0.89346302 -0.0290018
-0.079956301 0.89409202 -0.0256871
-0.081281699 0.894095 -0.023166399
0.0233103 0.89297301 -0.0210716
-0.088125303 0.893529 -0.0135693
-0.0915967 0.89420098 -0.0064496002
0.031561799 0.89345002 -0.0044066999
0.032995 0.89356202 -0.0019412
-0.093665302 0.89373899 -0.0020993
0.0346708 0.89380199 0.0030634
-0.095117003 0.89380097 0.0028357001
-0.0964377 0.893839 0.0054935999
-0.0984101 0.89318502 0.0085898004
0.036014099 0.89412701 0.0107454
-0.099474102 0.89350498 0.0112279
-0.102628 0.89344901 0.0188835
0.038188498 0.89374298 0.019995799
-0.103459 0.893417 0.021565501
0.0386304 0.89420301 0.023275999
0.039764401 0.89367098 0.027650399
-0.105437 0.893794 0.028745901
-0.106522 0.89356202 0.031588402
-0.107333 0.89313602 0.034498401
0.042328302 0.893785 0.0406284
-0.109788 0.893471 0.0434293
0.0422552 0.89381897 0.045728501
-0.111453 0.89377302 0.0500746
0.042424802 0.89414603 0.052371901
-0.112447 0.89352697 0.053530999
-0.11303 0.89371997 0.059144601
-0.113264 0.89369297 0.062461499
-0.11233 0.89337498 0.072729498
-0.111433 0.89339203 0.075369202
-0.110346 0.89364803 0.0781115
-0.109112 0.89374501 0.080782302
0.040305398 0.89323598 0.084188603
-0.104068 0.89379102 0.091112196
0.036923401 0.8937 0.0949772
-0.099308997 0.89351302 0.097257704
0.032732401 0.89339799 0.102409
0.0310927 0.89300299 0.104654
-0.105054 0.89394403 0.106757
0.0242783 0.89400798 0.112122
-0.099541403 0.89365298 0.115362
0.0211988 0.89343703 0.116656
0.018783299 0.89370698 0.119466
-0.095574602 0.893924 0.119778
-0.092341103 0.893695 0.123278
-0.088401698 0.89512599 0.123713
-0.0909779 0.893547 0.12569401
-0.089422502 0.89324999 0.12849
0.0137118 0.89341497 0.129592
-0.087414503 0.89384502 0.131383
0.0120734 0.89333802 0.132
-0.086366497 0.89403898 0.13405
-0.065437898 0.89320201 0.137803
-0.082731597 0.89406103 0.138088
0.0021138 0.89368701 0.13994101
0.0049652001 0.89442801 0.14105999
-0.061044101 0.89335102 0.14095999
-0.0514796 0.89339697 0.149396
-0.021288 0.89383298 0.150277
-0.023888201 0.89362299 0.15284801
0.188145 0.894445 -0.16413
0.186065 0.89522302 -0.16231599
-0.194409 0.89507103 -0.161709
0.17944901 0.89545101 -0.157267
-0.1841 0.89500701 -0.15528899
-0.176083 0.89500099 -0.151518
-0.16936401 0.89518398 -0.149422
-0.160951 0.89449102 -0.14744601
-0.164083 0.89526302 -0.1481
0.160294 0.89470297 -0.146515
0.15705501 0.89504999 -0.145362
0.152482 0.89459002 -0.144832
-0.15752 0.89538801 -0.145725
0.14393701 0.894728 -0.14353
0.141214 0.89489901 -0.14267001
-0.150335 0.89484298 -0.142574
0.126035 0.89522702 -0.140223
0.11687 0.89444 -0.139622
-0.145331 0.89470202 -0.139844
0.114101 0.89474702 -0.138974
-0.140563 0.89427 -0.138019
0.111087 0.89538997 -0.137861
0.104028 0.89468598 -0.135978
-0.13821401 0.89529997 -0.13660599
0.101333 0.89479101 -0.13478
-0.134193 0.894171 -0.134198
0.098707102 0.89484 -0.13355
0.096073203 0.89489698 -0.132337
-0.13199601 0.89483202 -0.13093001
0.087779298 0.895464 -0.127673
0.082703203 0.89534801 -0.12246
0.079646103 0.895042 -0.116515
0.0785065 0.894732 -0.114051
-0.121905 0.89482802 -0.11292
-0.119751 0.89520901 -0.111203
0.076670602 0.89494902 -0.110435
-0.0945566 0.894041 -0.109814
0.075191498 0.89513701 -0.108016
-0.093659498 0.89427102 -0.107155
-0.115271 0.89454103 -0.106655
0.0736086 0.89547002 -0.105832
-0.113167 0.895064 -0.104879
-0.106625 0.89501202 -0.097251602
0.0504512 0.896061 -0.0929638
-0.105125 0.89481801 -0.094879903
-0.103715 0.894701 -0.092416599
0.052421499 0.89542401 -0.090993099
-0.101722 0.89531201 -0.090535298
0.067163497 0.895096 -0.088417597
-0.080196902 0.89404601 -0.087384202
-0.099250004 0.89536798 -0.086574398
0.0493485 0.894795 -0.084262803
0.066711701 0.894925 -0.083531097
0.044563498 0.89524502 -0.083078898
-0.0977033 0.89518601 -0.082832798
0.041969199 0.89479899 -0.081820801
0.066362202 0.89479399 -0.0805398
0.048379399 0.89505303 -0.080888398
0.047819901 0.89520103 -0.078005701
0.065684997 0.89485002 -0.075518496
-0.072424799 0.89477098 -0.075408801
-0.096082203 0.89478999 -0.075516701
-0.094947197 0.89515001 -0.072752401
-0.092869699 0.89545202 -0.0670361
0.064164899 0.895078 -0.063934803
-0.0920607 0.89468199 -0.062786996
-0.068174303 0.89443803 -0.061447699
-0.089967698 0.895087 -0.061037701
-0.085088797 0.89540601 -0.058224998
-0.0782234 0.89538699 -0.055805799
-0.071588904 0.89502603 -0.054553598
0.0182778 0.89543498 -0.047098
0.018681699 0.89468801 -0.044330299
0.055136401 0.89453399 -0.041214898
-0.067829698 0.894885 -0.0419796
0.044588301 0.89498001 -0.0409334
0.0473007 0.89511102 -0.0395597
0.018412 0.89494902 -0.038041402
-0.071255602 0.89448601 -0.0364484
-0.0727043 0.89465302 -0.034030601
0.017786 0.895096 -0.032952599
-0.078160502 0.89491999 -0.027806399
0.019971499 0.89481598 -0.0264006
0.021137999 0.89468902 -0.0237296
-0.082635798 0.894292 -0.020704599
0.0217964 0.89535099 -0.0204855
-0.084244803 0.89457798 -0.018458599
0.0229428 0.89521402 -0.017789001
0.0245854 0.89429402 -0.0155853
-0.085875601 0.89487898 -0.016188901
0.0259565 0.89436501 -0.013073
0.0273045 0.89439702 -0.0105303
-0.088722698 0.89538002 -0.0114685
0.0286534 0.89445102 -0.0080051003
-0.0901272 0.89513999 -0.0088811005
0.033087 0.89505303 0.00042259999
-0.093853198 0.89500201 0.00061029999
0.035122398 0.89426601 0.0061566001
0.036497299 0.89451599 0.0139596
-0.100035 0.89482802 0.0135681
0.037029099 0.89478099 0.0172712
-0.101427 0.89518702 0.017102901
-0.103058 0.89547002 0.023611501
-0.103989 0.89483303 0.0261936
0.0397988 0.89501399 0.030142199
0.040683798 0.89504701 0.033090901
0.041511599 0.89443302 0.035843998
-0.107335 0.89471799 0.036928799
-0.108455 0.89423603 0.040086199
0.0419221 0.89505303 0.043050598
-0.110082 0.895096 0.045628902
0.0419655 0.894916 0.048809499
0.042610001 0.89417601 0.055495899
-0.112217 0.89550799 0.056690499
0.042566098 0.89469898 0.058648601
0.0423747 0.895136 0.061484098
0.042009901 0.89503199 0.065044403
-0.112126 0.89543098 0.065186299
0.041748501 0.89461601 0.068069398
-0.112049 0.89518398 0.069056302
0.041069701 0.89557898 0.070594899
0.040628701 0.894921 0.075337797
0.040592901 0.89437401 0.0780209
0.039842099 0.89539897 0.080700301
-0.107652 0.89495897 0.082912102
0.038937699 0.89486498 0.087253697
-0.105416 0.89500302 0.087207101
0.038000699 0.89478803 0.090890102
-0.102539 0.89458299 0.093401499
-0.100573 0.895311 0.095297404
0.0352927 0.894642 0.097231999
-0.0971267 0.89521098 0.098382503
-0.105309 0.89490199 0.10024
0.033206102 0.89511001 0.100266
-0.096547201 0.89542502 0.101628
0.0307885 0.89533299 0.103051
-0.10777 0.89469802 0.104475
0.0291091 0.89491898 0.105213
0.0273648 0.89446598 0.107404
0.025290901 0.89500201 0.109323
-0.104618 0.894813 0.109426
-0.102711 0.89530998 0.112007
-0.0975032 0.89475799 0.117015
0.019296899 0.89544702 0.117361
0.017145099 0.894449 0.121516
0.015014 0.89497399 0.12590399
0.012152 0.89562702 0.12984
-0.087697998 0.89542001 0.12901001
0.0097615998 0.89489698 0.13361301
0.0077781999 0.89422899 0.135455
-0.0847767 0.89521801 0.136025
-0.080127001 0.89550102 0.13814799
-0.058971599 0.895576 0.142465
0.0031119001 0.89487302 0.143915
-0.053194501 0.89522898 0.148056
-0.0179135 0.89519 0.149152
-0.025564799 0.896034 0.152566
-0.0471095 0.894961 0.153247
-0.0506901 0.89458102 0.151876
0.19795799 0.89615399 -0.169782
0.19548699 0.896097 -0.16835
0.19311801 0.89592201 -0.16688
0.19014101 0.896308 -0.16466799
-0.196026 0.89661598 -0.16399699
0.18402299 0.89592499 -0.16048101
-0.190458 0.89620203 -0.15928499
-0.188067 0.89639002 -0.157737
0.177288 0.89626998 -0.155604
0.17485499 0.89610499 -0.154175
-0.181229 0.89607698 -0.154002
0.17247801 0.89590502 -0.152669
0.170021 0.89573598 -0.151311
0.167289 0.89592302 -0.14986201
-0.173605 0.89641702 -0.150434
-0.166518 0.89658701 -0.14830001
0.162655 0.89682901 -0.147064
-0.154881 0.89546198 -0.14451499
0.15397 0.89682603 -0.14437699
0.14923 0.89608902 -0.14409301
0.13866401 0.89612597 -0.14157701
0.134461 0.896474 -0.140535
0.12952299 0.89643699 -0.13992099
-0.14759099 0.89626002 -0.140457
0.123464 0.89664602 -0.138978
-0.142735 0.89587897 -0.138207
0.118873 0.89652598 -0.138273
0.108269 0.89560503 -0.13688201
0.105915 0.89666998 -0.135379
-0.13599101 0.89623803 -0.134975
0.093710601 0.89594901 -0.130806
0.091124997 0.89593798 -0.129535
-0.13108 0.89619201 -0.12830199
0.085834399 0.896137 -0.12579501
-0.12941 0.89614499 -0.123395
0.081500798 0.89659703 -0.11987
-0.12658399 0.89644498 -0.118397
-0.124311 0.89592803 -0.115556
-0.117348 0.89665502 -0.109746
0.071519703 0.89618999 -0.102673
-0.111101 0.89561701 -0.103081
-0.108995 0.89609599 -0.101323
0.069944702 0.89651102 -0.099080399
-0.106859 0.89652401 -0.099601097
0.068838596 0.896294 -0.095855802
-0.104343 0.89661098 -0.096928403
-0.102834 0.89637899 -0.0945995
0.0534794 0.89616501 -0.093642898
0.0679112 0.89626902 -0.092336804
0.049885899 0.896451 -0.089883097
-0.099125601 0.89655799 -0.089258097
-0.096659899 0.89665997 -0.085291699
-0.095414497 0.89640802 -0.081602
0.0456248 0.89604801 -0.080634102
0.043816 0.89706999 -0.078888699
-0.073324002 0.896285 -0.077935897
-0.094890103 0.89600599 -0.0783424
0.046605598 0.89600098 -0.075207397
-0.093510903 0.89644003 -0.075437903
0.065407999 0.89635903 -0.071784899
0.046573501 0.89585799 -0.071363203
-0.092642702 0.896474 -0.071676299
0.046638399 0.89548999 -0.0683375
-0.090955198 0.89621198 -0.065131798
0.045552 0.89599198 -0.064103298
0.044510201 0.89653802 -0.0611986
0.0636364 0.89614201 -0.060074199
-0.0871941 0.89620203 -0.059955601
0.044170599 0.896056 -0.057726599
0.062453099 0.89632499 -0.054713201
0.042773198 0.89659101 -0.055187199
-0.069329403 0.89604998 -0.053457402
0.042071201 0.89627302 -0.052202001
-0.0667217 0.89665997 -0.0517985
0.061453301 0.89595002 -0.051125601
0.042788401 0.89577597 -0.049082998
-0.0654805 0.89623302 -0.049303599
0.060275398 0.89647198 -0.048122399
0.0426323 0.89599401 -0.045981199
-0.065366402 0.89626199 -0.045963801
0.05824 0.89604598 -0.044780899
0.042226601 0.89624101 -0.042162199
0.018386399 0.89576203 -0.041657198
-0.068811402 0.895859 -0.039043002
0.051696599 0.89671701 -0.038008898
0.0167471 0.89668798 -0.036343198
-0.069646701 0.89676702 -0.036119699
-0.073233701 0.89645302 -0.031936899
0.017467599 0.89617902 -0.0303644
-0.075343803 0.89596701 -0.030181499
-0.078493699 0.89649802 -0.025485501
0.019223901 0.896667 -0.024454299
-0.079663701 0.89674598 -0.0228805
-0.081175297 0.89671898 -0.0205631
0.023074299 0.896617 -0.0153616
-0.087043896 0.89609098 -0.0135094
0.024428399 0.89668602 -0.0128469
0.026893901 0.89657998 -0.0088382
0.0290161 0.89608002 -0.0057577998
-0.091836601 0.89607298 -0.0043636002
0.030455001 0.89625603 -0.0033424001
0.033163201 0.89629197 0.0032395001
-0.094099201 0.89647102 0.0037680999
-0.096298002 0.89623803 0.0069725001
0.034260102 0.896303 0.0084950998
-0.097624801 0.896366 0.0095475996
0.034712799 0.89665598 0.0117962
0.036836401 0.89620399 0.020044699
-0.102059 0.89596599 0.0201337
0.0373201 0.896887 0.023413099
0.038367499 0.89615899 0.026464
-0.104257 0.89644998 0.028655101
-0.10545 0.89640301 0.031411901
-0.106243 0.89597601 0.033983599
0.041568801 0.89535999 0.038387001
-0.10834 0.896617 0.041405901
0.041273501 0.89679402 0.045375399
-0.110518 0.89605999 0.048209202
-0.111631 0.89638299 0.053603798
-0.111888 0.896568 0.059425902
-0.111148 0.89585298 0.072800703
0.040062401 0.89688599 0.0735147
-0.110313 0.89600497 0.075483799
-0.109385 0.89638799 0.078307599
0.039154802 0.895998 0.083444297
-0.105895 0.89671397 0.085143901
-0.103812 0.89601302 0.0895494
-0.101961 0.896891 0.091744803
0.0365289 0.89590698 0.093285002
0.033535998 0.89673001 0.098019697
-0.0996347 0.89625502 0.102091
-0.10344 0.89699 0.102049
-0.107163 0.89644599 0.102346
0.0256903 0.89667302 0.107041
0.022805599 0.89630198 0.111744
0.0212774 0.89596701 0.114257
-0.098958001 0.89658302 0.114482
-0.095867798 0.897677 0.115613
0.017484499 0.89624202 0.119522
-0.093875997 0.89620501 0.120714
-0.091121398 0.89599597 0.122144
0.0152348 0.89656901 0.123627
-0.089179903 0.89554697 0.12666
-0.085616499 0.89617902 0.131025
-0.083741203 0.89693397 0.13288
0.0063077998 0.89665103 0.135361
0.0059308 0.89491302 0.137703
0.0021418999 0.896842 0.13817599
-0.066519298 0.89600903 0.137226
-0.064007498 0.896236 0.13872901
-0.061630599 0.89606398 0.14015301
-0.022216501 0.89663702 0.149372
0.18802699 0.89714599 -0.16295099
-0.192994 0.89757299 -0.16182999
0.185936 0.89789999 -0.16115201
0.18204001 0.89671999 -0.158696
-0.185349 0.89754802 -0.15652999
-0.17878 0.89761001 -0.152927
0.16531301 0.89792699 -0.14825
-0.160992 0.89707702 -0.14611401
-0.16402601 0.89788198 -0.146925
0.16023 0.89772701 -0.145641
0.14643601 0.89734 -0.1434
-0.156583 0.89758998 -0.14407
0.14272401 0.89769697 -0.14235701
-0.151748 0.89723098 -0.142104
0.127023 0.897479 -0.13902999
-0.145144 0.89743501 -0.138739
0.115606 0.89745599 -0.137164
-0.14054 0.89686102 -0.13696
0.110281 0.89741099 -0.136214
0.103165 0.89683598 -0.13425501
0.100456 0.896954 -0.13307901
-0.134014 0.897425 -0.133008
0.0977441 0.89709401 -0.131937
0.089151397 0.89794099 -0.127564
0.084348999 0.89761102 -0.123392
-0.128032 0.89756799 -0.120946
0.0801403 0.89790499 -0.115973
-0.122104 0.89754599 -0.113804
0.0789745 0.89778 -0.113248
0.077681199 0.89780301 -0.110666
0.076125599 0.89783299 -0.108189
-0.115176 0.89706099 -0.108047
-0.112976 0.89751101 -0.106376
-0.110763 0.897879 -0.10471
0.055414099 0.89848799 -0.093853697
-0.100281 0.89769799 -0.093262203
0.067763001 0.89741802 -0.089659899
-0.077494502 0.89475101 -0.0883497
0.067531496 0.89740199 -0.0869174
0.0503591 0.89959002 -0.088250801
-0.0965067 0.897816 -0.088009
0.067228302 0.89771497 -0.083446696
0.040940601 0.897376 -0.080579802
0.066698201 0.89744598 -0.079370603
-0.0925171 0.89775997 -0.079014599
0.066100098 0.89751101 -0.075036101
0.043761 0.89791101 -0.075185098
-0.091270298 0.89774799 -0.074187502
0.0429122 0.89859402 -0.072712503
0.044368502 0.89756501 -0.070129998
-0.090388201 0.89769602 -0.0702774
0.065106399 0.89745599 -0.068990201
0.044635698 0.89717698 -0.066502497
-0.0889965 0.89799899 -0.067235202
0.064608298 0.89769697 -0.0653648
0.043256201 0.89784402 -0.063825198
-0.088485703 0.89751703 -0.063812301
-0.084926501 0.89784002 -0.059599299
-0.082826398 0.89695197 -0.057714399
0.040263001 0.89820999 -0.054687101
-0.072917297 0.89756 -0.054379899
0.018272599 0.89784098 -0.050884001
0.040833101 0.89798599 -0.047664698
0.0174092 0.897852 -0.045747701
0.056272 0.897497 -0.042696599
0.040872999 0.89769 -0.044297401
-0.065149799 0.89747697 -0.043250699
0.040330999 0.898399 -0.0414402
-0.066554397 0.89751899 -0.040730599
0.054121401 0.89686501 -0.039934501
0.044450399 0.8973 -0.039256498
0.017260499 0.89715803 -0.039537001
0.048632599 0.89712399 -0.037749
-0.071143001 0.89695102 -0.033759698
0.0160568 0.89755201 -0.0327802
0.017437 0.89741498 -0.027717801
-0.0766427 0.89721799 -0.0275422
0.019921999 0.89733499 -0.021223901
0.0211195 0.89725202 -0.018569799
-0.082866602 0.897066 -0.018334899
-0.084513001 0.89742899 -0.0161366
-0.087585203 0.89787298 -0.0114246
-0.088962398 0.89789999 -0.0088914996
-0.0905127 0.89688599 -0.0065748999
0.031383902 0.897156 -0.0004467
-0.092276298 0.89748597 -0.00063839997
0.033023801 0.89742398 0.0057950001
-0.098550901 0.897273 0.0124467
0.035246201 0.89692301 0.0146135
-0.100052 0.89747298 0.016070601
0.035517499 0.89738297 0.0173552
-0.101482 0.89815903 0.022474499
-0.10272 0.89754403 0.0263307
0.038337599 0.89764398 0.0291619
0.039515398 0.89759099 0.032736301
0.040353701 0.89731997 0.035604101
-0.106645 0.89764702 0.0377573
0.040740699 0.89780301 0.039457701
0.0410229 0.89762098 0.048073299
0.041407399 0.89686298 0.050777901
-0.11099 0.89714402 0.051067799
0.040977199 0.89805698 0.053299598
0.041575301 0.89701599 0.056115001
-0.110997 0.89809901 0.055638898
0.041515101 0.897407 0.058965798
0.0410599 0.89834702 0.062537096
-0.11121 0.89725602 0.0626553
0.040847301 0.89766699 0.066220999
-0.11079 0.897394 0.066707499
-0.110708 0.89735103 0.070049599
0.039457198 0.897228 0.077036001
-0.108004 0.89723498 0.080917999
0.038626701 0.89804 0.081294902
0.038059998 0.89718902 0.085932903
-0.1042 0.89778298 0.087388203
0.037126999 0.89775997 0.088692203
0.0360737 0.89800799 0.091539897
-0.100145 0.89748001 0.093745999
0.034892902 0.89685601 0.095555902
-0.098523602 0.89723402 0.096113697
-0.097409703 0.89836597 0.098533198
0.031682398 0.897461 0.100028
0.0291752 0.89757597 0.10273
-0.095862098 0.89855701 0.101529
0.027482601 0.89713502 0.104862
-0.106738 0.89760602 0.105276
-0.087231599 0.899804 0.106514
-0.105213 0.89769697 0.107674
0.0237108 0.89728701 0.108932
-0.103122 0.89740801 0.110341
-0.100801 0.89791203 0.112744
0.0188796 0.89767998 0.115725
-0.089762799 0.89782101 0.12362
0.0134562 0.89735597 0.125701
-0.087238997 0.89770103 0.127442
0.011789 0.89783502 0.127995
0.0102686 0.89801401 0.131227
-0.083634697 0.89787102 0.130163
-0.081032798 0.89823699 0.132442
0.0085044 0.89729899 0.13350099
-0.0703438 0.89800799 0.13653301
-0.081801102 0.89712298 0.136197
0.0043950998 0.89812499 0.139075
-0.0004513 0.89802903 0.138918
-0.0784503 0.89774603 0.13806
0.0073839999 0.89804697 0.139437
-0.059478801 0.89814901 0.140855
0.0043962002 0.89732301 0.142361
-0.0543673 0.89729702 0.145276
-0.019109201 0.898287 0.148413
-0.024368601 0.89824897 0.1498
-0.045400299 0.897466 0.150244
-0.051702801 0.897349 0.149074
-0.0483796 0.89712298 0.151095
0.19814301 0.89914203 -0.16889399
0.19531301 0.898835 -0.167252
0.19301599 0.89859998 -0.16570599
-0.19621301 0.898812 -0.16558
0.190064 0.898947 -0.163496
-0.190385 0.89883202 -0.160556
0.183882 0.89864397 -0.15933099
-0.18815599 0.89913398 -0.158958
0.181021 0.89898002 -0.157052
0.17870399 0.89873701 -0.155499
-0.18265501 0.89873803 -0.15537199
0.176304 0.89853501 -0.154019
0.17388099 0.89842403 -0.15252
0.17145801 0.898251 -0.15118501
-0.176062 0.89871597 -0.151585
0.168835 0.89825201 -0.14989799
-0.168846 0.89833897 -0.14861099
0.157223 0.898211 -0.144575
0.15107 0.89854902 -0.14366899
-0.15901101 0.899095 -0.144291
-0.15436301 0.89887702 -0.14251401
0.14008 0.89855999 -0.141378
0.13673601 0.89808202 -0.14061999
0.13256299 0.89832598 -0.139621
-0.14889 0.89884698 -0.140166
0.122009 0.89862603 -0.13730501
-0.14292499 0.89888698 -0.137309
0.119508 0.89925998 -0.136461
0.112894 0.89881402 -0.13585199
-0.138797 0.89858198 -0.135755
0.107827 0.89862001 -0.134736
0.105019 0.89885801 -0.133687
0.102275 0.899028 -0.13258
0.099487498 0.89920998 -0.131485
0.095318697 0.89824098 -0.13048001
-0.13246199 0.898664 -0.131071
0.092569202 0.89838398 -0.129269
-0.130881 0.89901203 -0.128374
0.087191597 0.89861798 -0.125728
-0.129829 0.89862001 -0.12549099
0.0829935 0.89888901 -0.120867
0.081543498 0.89909297 -0.118505
-0.12642901 0.89926797 -0.11884
-0.124881 0.89835799 -0.116676
-0.119735 0.89910901 -0.112498
-0.116008 0.89921302 -0.109798
0.0744185 0.89828998 -0.105877
0.072587997 0.89899999 -0.103156
-0.108542 0.89823598 -0.103065
-0.106398 0.89866102 -0.101359
0.071112201 0.89918798 -0.100496
-0.104667 0.89821601 -0.099202298
0.069907799 0.898763 -0.097572602
-0.102506 0.89864498 -0.097474001
0.069162399 0.89888501 -0.094980001
-0.100422 0.89912999 -0.095679097
0.050444402 0.89916599 -0.092788599
-0.0977121 0.89900702 -0.091955103
-0.093759902 0.89894903 -0.085507497
-0.092518099 0.89897698 -0.0829916
-0.090357102 0.89899099 -0.077685997
-0.088978402 0.89912802 -0.072873302
0.065898702 0.89931703 -0.0721258
0.042210601 0.899019 -0.069083199
0.041379001 0.89920902 -0.066106401
0.037620701 0.90084201 -0.067487702
-0.0861632 0.89905798 -0.063505702
0.064206399 0.89845198 -0.062729701
0.040934399 0.89970201 -0.063124202
0.063628897 0.89894497 -0.059956301
0.042626899 0.89815301 -0.0600009
0.038880099 0.90022802 -0.058816999
0.062987 0.89869601 -0.057306401
0.040705401 0.89875603 -0.057319999
-0.080720298 0.89880598 -0.0573451
0.022801001 0.90025002 -0.056865301
-0.078228399 0.89850098 -0.056088299
-0.075251304 0.899046 -0.055128202
0.0618212 0.89868599 -0.053439099
-0.070438303 0.89887601 -0.053675
0.039220098 0.898866 -0.052250501
-0.0641523 0.89908397 -0.050521702
0.060748398 0.89841902 -0.050086498
-0.062850997 0.89916199 -0.047909901
0.0590363 0.89897102 -0.046773799
-0.063558497 0.898462 -0.0453768
0.0174748 0.898862 -0.043020502
0.052987602 0.89899898 -0.038700599
0.0151146 0.89916801 -0.037528899
-0.067468598 0.89844602 -0.037783701
0.0460876 0.89915103 -0.037093502
-0.069136404 0.89884102 -0.034352601
-0.071658202 0.89875501 -0.0316585
0.0151103 0.89928401 -0.0306712
-0.073785201 0.89829201 -0.029895101
0.017312801 0.89865601 -0.025056301
-0.076862901 0.89878601 -0.0252268
0.01801 0.89930701 -0.0219054
-0.078630798 0.89930201 -0.0218875
0.019199301 0.899243 -0.019238999
-0.081065997 0.89911699 -0.0191475
0.021218199 0.89864701 -0.0161085
0.022545001 0.898669 -0.0135699
-0.085760899 0.89864701 -0.0134834
0.024009099 0.89884901 -0.0111178
0.0255387 0.899095 -0.0087673999
0.027314199 0.89825302 -0.0066367001
0.028674001 0.89834303 -0.0041398001
-0.0901272 0.89910197 -0.0048080999
0.0296345 0.89928901 -0.0011924
0.0312389 0.89859098 0.0019628
-0.0923272 0.89879203 0.0019516
-0.093710698 0.899176 0.0053174999
0.032633699 0.898588 0.0084269
-0.096094899 0.89867502 0.0084630996
0.0331426 0.89895803 0.0120804
-0.100352 0.89866799 0.0186683
0.035422102 0.89862502 0.020100299
0.0360214 0.89927799 0.0232186
0.037048198 0.89896798 0.026565799
-0.10301 0.89917201 0.028577801
-0.104276 0.89913702 0.0311947
-0.105248 0.89896899 0.034262199
-0.106962 0.89926398 0.040091101
0.040672801 0.89832401 0.043152001
-0.108719 0.898278 0.043634199
-0.109556 0.898395 0.046750098
-0.11045 0.89891601 0.058452699
-0.109489 0.89923197 0.0651455
0.040157799 0.89843601 0.068964802
-0.109114 0.89923102 0.071728103
-0.1089 0.898745 0.075411499
-0.106279 0.89867997 0.083237402
0.037397798 0.8994 0.0839203
-0.102453 0.89858598 0.089483097
-0.100556 0.89928901 0.091456398
0.034498099 0.89903003 0.093836904
-0.098300397 0.89950299 0.094410703
0.033108301 0.89891499 0.0963099
0.0295876 0.899257 0.100573
0.027006 0.89926302 0.103097
-0.100742 0.89928401 0.102957
0.0253317 0.89886099 0.10531
0.0216341 0.89892501 0.110613
0.0200385 0.89889002 0.112978
-0.094299003 0.899894 0.114346
-0.098082103 0.899324 0.113707
0.017117999 0.898462 0.117739
-0.094181098 0.89940101 0.117682
0.0157641 0.89837301 0.120267
-0.092822596 0.89871299 0.120847
0.0136517 0.89879698 0.123304
-0.080686197 0.89971602 0.128757
-0.083803304 0.89949101 0.127941
-0.0769898 0.89941901 0.133494
0.0063518998 0.89928699 0.134167
-0.072533101 0.90017402 0.13441201
0.0039836001 0.89834398 0.135993
-0.067605302 0.89857101 0.136878
-0.079173498 0.89858401 0.135552
0.0014686 0.89945602 0.136834
-0.0033382999 0.89987099 0.138056
-0.062570602 0.89867502 0.139084
-0.076021098 0.89907497 0.13825101
0.0008107 0.89942801 0.141294
-0.0016986 0.89885497 0.14264201
-0.052561902 0.89927202 0.144113
-0.047996201 0.89913899 0.149056
-0.19378901 0.89959401 -0.163569
0.18793599 0.89982599 -0.161764
0.185853 0.900621 -0.15995
-0.185563 0.900415 -0.1577
-0.180031 0.90003502 -0.154176
-0.17349701 0.90015697 -0.150416
0.16656899 0.90050101 -0.148247
-0.166095 0.89981198 -0.147211
0.163279 0.89994299 -0.14663699
-0.161973 0.89993697 -0.14517599
0.158755 0.90056998 -0.14450601
0.153992 0.900159 -0.143626
0.148453 0.89927202 -0.14323699
0.145064 0.90007699 -0.14236499
-0.15153199 0.90008098 -0.14100599
0.13826001 0.900424 -0.140421
0.134941 0.89987803 -0.139654
0.129593 0.89959598 -0.13842
-0.14658301 0.89997 -0.13873699
0.127029 0.90012401 -0.137539
0.124058 0.90065598 -0.13652401
0.117106 0.90048301 -0.135361
0.110572 0.89986002 -0.134646
-0.136549 0.90044802 -0.134331
-0.134286 0.90045398 -0.132782
0.097030103 0.90038502 -0.130063
0.094275899 0.90055501 -0.128922
0.090653703 0.90031099 -0.127315
0.085650802 0.90013701 -0.123392
-0.128493 0.89991403 -0.122926
0.080143601 0.90039402 -0.114568
-0.122449 0.90056598 -0.114993
0.078995503 0.90032601 -0.111968
-0.113749 0.89956498 -0.108207
-0.111456 0.89987999 -0.106604
-0.109162 0.90018499 -0.105001
-0.106956 0.90054202 -0.103348
-0.104323 0.90047199 -0.100841
-0.097868502 0.90045702 -0.0943598
0.0686405 0.89988297 -0.092191704
-0.095114402 0.90028101 -0.090693399
-0.093668103 0.90012401 -0.088273898
0.067997999 0.90022701 -0.087384403
-0.091513798 0.900572 -0.085256897
-0.090214401 0.90027303 -0.081703
0.067229599 0.90018499 -0.081302799
0.040549599 0.900096 -0.079568803
0.066850998 0.90005797 -0.078138098
0.041884899 0.89995301 -0.076298602
-0.088357702 0.90003699 -0.075504199
0.041022401 0.90071601 -0.073314697
-0.087070003 0.90001601 -0.070294201
0.039713901 0.90064198 -0.069867097
0.065157801 0.90007198 -0.068251297
-0.085943498 0.90018898 -0.067538902
-0.083850197 0.90034598 -0.062225901
0.036508098 0.90170199 -0.058813699
-0.082713298 0.89947999 -0.059225701
0.038164001 0.90003502 -0.056092098
0.02069 0.90130401 -0.054367799
-0.066546701 0.90009099 -0.052432202
0.0388529 0.89958102 -0.049175199
0.017721999 0.89990097 -0.048783701
0.0383352 0.90010703 -0.046124
0.057372998 0.89989698 -0.0446226
-0.061731901 0.90047997 -0.045078401
0.0379497 0.90008003 -0.0431838
0.017371301 0.90100598 -0.044835601
-0.063484497 0.89960903 -0.042859498
0.054949 0.90007502 -0.041931499
0.016169099 0.89995402 -0.040658601
-0.064880401 0.89973402 -0.040361401
0.0416384 0.89976603 -0.039045099
0.038732398 0.900814 -0.040133402
0.0505553 0.90000302 -0.036959901
-0.065788202 0.90061897 -0.037398402
0.043885101 0.90109003 -0.036471501
0.0143367 0.89966601 -0.0344241
-0.069587998 0.90055901 -0.0321986
-0.072107501 0.90050298 -0.029518601
0.0151806 0.90034902 -0.027542001
-0.074185997 0.899988 -0.027679199
-0.082751296 0.89947701 -0.0169392
0.019358 0.90065199 -0.016775999
-0.086288899 0.90038401 -0.0113501
-0.087597497 0.90041602 -0.0087984996
0.027008399 0.90050101 -0.0050114999
-0.090691201 0.899903 -0.0017789
0.031400502 0.89934301 0.0045675999
-0.096388802 0.90029401 0.0107005
-0.097658299 0.90022898 0.0133158
0.033178098 0.90004998 0.0148714
-0.098800801 0.90017903 0.0159119
0.0335287 0.90068102 0.0180484
-0.100102 0.90040803 0.021307601
-0.10129 0.89976501 0.0249584
0.037283 0.90045798 0.029869899
0.0383678 0.90030098 0.0331094
0.0393622 0.90022099 0.036838502
-0.10562 0.90042198 0.037693899
0.039757501 0.90017903 0.040594101
0.0397195 0.900464 0.044645701
-0.108369 0.90052199 0.045306001
0.039830301 0.90046602 0.047527298
-0.109343 0.90024799 0.049336199
0.040299699 0.89955801 0.051081099
-0.110103 0.89972901 0.052288398
0.039924901 0.900415 0.054678399
-0.109597 0.90051001 0.0548952
0.0404661 0.89931601 0.057201099
0.0403095 0.899997 0.059999999
-0.10971 0.89954501 0.061310999
0.0400065 0.90075397 0.063484199
0.0397195 0.90037 0.066872902
-0.108858 0.89984 0.067717701
0.039390199 0.89963597 0.071770601
0.038860202 0.89958102 0.075064696
0.038099799 0.90038401 0.077828199
-0.107607 0.90010101 0.0780463
0.0373789 0.900581 0.081251599
-0.10444 0.899777 0.0854844
0.036590599 0.89968598 0.086724997
0.035584599 0.90004402 0.089693896
-0.096405201 0.900365 0.096601002
0.031240299 0.89959699 0.098297097
-0.0970309 0.90095299 0.102435
-0.103834 0.90015 0.103857
-0.0845474 0.90008998 0.106876
0.0232768 0.89945799 0.107231
-0.103576 0.89992398 0.108638
-0.098472901 0.90146399 0.111357
0.017790601 0.90033501 0.114553
0.0151487 0.90032601 0.118344
0.0137064 0.90017599 0.120876
-0.090530902 0.901232 0.121084
-0.087807298 0.901281 0.121909
0.0113082 0.90032703 0.124822
-0.080057003 0.90197402 0.124512
-0.088028602 0.89972001 0.124654
0.0101174 0.90037799 0.127519
-0.077092297 0.90087301 0.128667
-0.074392803 0.90199399 0.129053
-0.053755399 0.90073901 0.13387799
-0.074620202 0.90037698 0.132561
-0.0642545 0.901232 0.137013
-0.067658298 0.90184301 0.13529401
-0.072868198 0.89976901 0.13736001
-0.051651701 0.90106201 0.140945
-0.0567008 0.90041399 0.140277
-0.0039459998 0.900644 0.143417
-0.050858099 0.89990401 0.14663699
-0.0219469 0.89981002 0.14822599
-0.025787299 0.90075701 0.14968701
-0.050720699 0.90076798 0.150336
0.196715 0.90134001 -0.16737799
-0.196358 0.90150398 -0.166811
0.194203 0.90122402 -0.16568001
0.19146501 0.90126801 -0.16356599
-0.191819 0.90148699 -0.16300599
-0.18896399 0.90125102 -0.160706
0.183823 0.90137398 -0.158125
0.180922 0.90163302 -0.155882
0.17858499 0.90144098 -0.15434299
0.17618001 0.901241 -0.15284801
-0.177332 0.901227 -0.152879
0.173712 0.90114802 -0.151436
0.171112 0.901452 -0.150067
-0.16987599 0.90118003 -0.148701
0.15089101 0.90147901 -0.142913
-0.155581 0.90132302 -0.142241
-0.158602 0.90184498 -0.14326
0.14271501 0.90117699 -0.141471
0.132309 0.901335 -0.138478
-0.14005899 0.90131003 -0.13579699
0.120199 0.90170801 -0.135185
0.114257 0.90120202 -0.13451
0.108032 0.90096802 -0.133215
0.105153 0.90126002 -0.132227
0.102362 0.90151399 -0.13121
-0.13214 0.90142101 -0.13075399
0.099486902 0.90179002 -0.13017499
-0.12975299 0.90130901 -0.127037
0.088661797 0.90101999 -0.125517
0.084188998 0.90156102 -0.120961
-0.127042 0.90119803 -0.120691
0.082589298 0.90184498 -0.118674
-0.124883 0.90159202 -0.117724
-0.118684 0.901627 -0.112593
-0.116146 0.90189898 -0.110948
0.077763401 0.90115798 -0.109501
0.075958297 0.90067798 -0.107104
0.073903099 0.901622 -0.104122
0.072405398 0.901869 -0.101878
0.070682503 0.90131003 -0.098702997
-0.102091 0.90081 -0.099191003
-0.099904403 0.90119702 -0.097511299
0.069405898 0.90168297 -0.0946282
-0.095288999 0.90174502 -0.093082599
0.050725199 0.901223 -0.090764202
0.0684928 0.90167499 -0.089922599
-0.092861503 0.901896 -0.090344399
-0.091450296 0.90176898 -0.087898001
0.067783996 0.90131402 -0.084772997
-0.089059599 0.90189201 -0.083861403
-0.088221401 0.90111899 -0.079405598
-0.086361498 0.90178698 -0.076643899
0.066440903 0.90129203 -0.074835598
-0.085743099 0.90140402 -0.072688296
-0.083862901 0.90184999 -0.068385303
0.064480297 0.90124899 -0.0647953
0.039086301 0.90096599 -0.0651545
-0.0840123 0.90108299 -0.065460399
0.025529901 0.90158701 -0.062104899
0.063675404 0.90150303 -0.061097901
0.038737301 0.90180701 -0.0624655
-0.080900699 0.90150499 -0.059737701
0.0242857 0.90139902 -0.058830101
-0.079121597 0.901039 -0.0576525
0.062261499 0.90131199 -0.0562043
-0.076690704 0.90107602 -0.056224599
0.0360406 0.901712 -0.055511799
-0.072786897 0.90125698 -0.054671802
0.0234391 0.90217203 -0.0538476
0.060915601 0.901223 -0.052294601
0.0367423 0.90102202 -0.052354101
0.018513599 0.90077102 -0.052205
0.021566199 0.90248901 -0.0518011
-0.061875701 0.901703 -0.050076701
0.059873201 0.90118998 -0.0497844
0.034968302 0.90210801 -0.050301
0.0362827 0.901586 -0.047433
-0.060063399 0.90191102 -0.046850901
0.035419099 0.90177399 -0.043200701
0.032179199 0.90295798 -0.042377502
-0.061663799 0.90169197 -0.042321201
0.052578401 0.90166199 -0.0390637
0.0137809 0.901586 -0.039021399
-0.063086003 0.90181297 -0.039874099
0.048013698 0.901591 -0.036006801
-0.067146704 0.90069801 -0.034927499
0.0126545 0.90182501 -0.0328562
0.015678201 0.900801 -0.0248014
-0.075243898 0.90107101 -0.0249182
-0.076806404 0.90132999 -0.02262
0.0164274 0.90160602 -0.021707499
-0.078441001 0.90162802 -0.020387299
0.0176163 0.90153402 -0.018978801
-0.080899797 0.90146399 -0.017663199
0.0207638 0.90076298 -0.0143387
-0.083255902 0.90129399 -0.014898
0.022182001 0.90089297 -0.0118777
0.0237283 0.90114498 -0.0095496001
0.0252873 0.90142202 -0.0072169998
-0.088450201 0.90130299 -0.0057898001
0.027865 0.90139902 -0.0020502999
0.0290369 0.90125901 0.00065639999
-0.090792201 0.901124 0.0007648
0.029617799 0.90189499 0.0038882999
-0.091498099 0.90188402 0.0038818
0.0305478 0.90142202 0.0068672998
-0.093618803 0.90140599 0.0069766999
0.031398401 0.90112603 0.0106252
-0.098995999 0.90158498 0.0188969
0.0341761 0.901326 0.0212251
0.0354978 0.90129203 0.025128599
-0.10153 0.90153199 0.027522599
-0.102823 0.90161902 0.0300743
-0.104138 0.90121597 0.032940701
-0.105908 0.90180701 0.040075898
-0.108664 0.901452 0.057697199
-0.107971 0.90133399 0.062766701
-0.107654 0.90105802 0.070234403
-0.107253 0.90141499 0.072891198
-0.106843 0.90166199 0.075850002
-0.106384 0.90102899 0.080538198
0.035975199 0.90171498 0.0846356
-0.10267 0.901398 0.087062098
-0.101051 0.90113401 0.089454196
0.0340706 0.901124 0.092071697
0.032731999 0.901106 0.094627298
0.0308393 0.90178001 0.096599102
0.029229701 0.90143901 0.0988345
-0.095393501 0.901191 0.099771
0.0274285 0.90101099 0.100954
0.025309799 0.90145999 0.102681
-0.0996309 0.90189999 0.102779
0.023669699 0.90110701 0.104969
-0.0874075 0.90242201 0.105659
-0.104894 0.90100503 0.106397
0.0215204 0.90141702 0.107884
0.0200736 0.90135598 0.110286
-0.102064 0.90129203 0.110566
0.0153781 0.901847 0.116052
-0.0926283 0.90172702 0.118375
0.0113717 0.90171701 0.122348
-0.085451499 0.90232801 0.122971
-0.085685901 0.90092099 0.125431
-0.0829411 0.90135902 0.125947
0.0084324004 0.90148699 0.129605
0.0062734 0.90233803 0.131355
0.0083296997 0.90013599 0.132312
0.0032454999 0.901438 0.13494501
-0.00025700001 0.90190899 0.136711
-0.060143199 0.90141797 0.137964
-0.070145302 0.901555 0.13732301
-0.053941902 0.90139598 0.13919801
-0.0015734 0.90130901 0.139907
-0.0080530001 0.90205097 0.144532
-0.193729 0.90210599 -0.16491
0.189294 0.90232199 -0.161676
0.187195 0.90312499 -0.15990099
-0.186434 0.90258902 -0.15939
-0.18415301 0.90289903 -0.15783399
-0.181159 0.90241802 -0.15558501
-0.17483599 0.90267903 -0.151614
0.168513 0.90249002 -0.148646
-0.16728599 0.902448 -0.14733601
0.164354 0.90270501 -0.146578
0.161798 0.902363 -0.14535899
-0.164335 0.90264601 -0.145734
0.15666901 0.90278 -0.143663
0.15390299 0.90283698 -0.143049
0.147634 0.90270102 -0.142288
-0.15296499 0.90259099 -0.141195
0.139953 0.90261197 -0.14031801
-0.15020899 0.90274101 -0.14019901
0.13602901 0.90266901 -0.139117
-0.146521 0.90275198 -0.13847101
0.12974399 0.90248299 -0.13735101
-0.144098 0.90221602 -0.137343
0.127077 0.90266901 -0.136452
0.124105 0.903301 -0.13538399
-0.137545 0.90309298 -0.13459
0.117677 0.90327102 -0.13393299
0.111965 0.90240198 -0.13332701
0.097032301 0.90293801 -0.12871701
0.093351401 0.902776 -0.12729301
0.090789698 0.90275401 -0.125956
-0.128325 0.90250599 -0.124606
0.087072603 0.902601 -0.12327
0.081427597 0.903193 -0.116047
-0.121241 0.90323502 -0.114937
0.080227301 0.90290201 -0.113553
-0.113772 0.90217501 -0.109426
-0.111402 0.902403 -0.107898
-0.10911 0.90270799 -0.106383
-0.105485 0.90289998 -0.103542
-0.102735 0.90274101 -0.101132
-0.100426 0.903027 -0.099567398
-0.097327799 0.90249199 -0.096221201
-0.088911302 0.90312499 -0.086580902
-0.087168798 0.90270102 -0.081839398
0.067092702 0.90257001 -0.079709403
-0.0859458 0.90289801 -0.079417899
0.040332802 0.90191698 -0.0774756
0.0383799 0.902632 -0.072595797
-0.083747901 0.90302902 -0.073588103
0.065974697 0.9023 -0.072269
0.037220199 0.90272802 -0.070013799
0.064882003 0.90281302 -0.067569599
-0.082007296 0.902771 -0.066324897
0.036896199 0.90281898 -0.0655782
0.033326901 0.90381402 -0.062669203
-0.081445202 0.90238899 -0.062910102
0.035852298 0.903054 -0.061745498
0.062706903 0.90268302 -0.058619302
-0.077384301 0.90319198 -0.058103699
-0.074520797 0.90300697 -0.055958901
0.034184299 0.90262401 -0.0535638
0.0256532 0.90350902 -0.0547649
-0.068860397 0.90269399 -0.053614099
-0.065144397 0.90244102 -0.052280799
0.0189496 0.902619 -0.049684301
0.05821 0.90253001 -0.0473685
0.056242298 0.90255702 -0.0444231
0.0179193 0.90296102 -0.042894099
-0.059263099 0.90301198 -0.043792401
0.053673599 0.90270901 -0.041730698
0.0152473 0.902897 -0.0413904
0.036067601 0.90306598 -0.039897598
0.0403759 0.902349 -0.037805501
0.0122964 0.90226799 -0.036617901
-0.064076602 0.90278399 -0.036966801
0.0505987 0.90300798 -0.036540899
0.044221301 0.90353501 -0.034885399
-0.065521501 0.90293998 -0.034563798
-0.067539103 0.902367 -0.032712299
0.0130628 0.90206099 -0.029815501
-0.0691709 0.90270501 -0.030489599
-0.071589299 0.90254903 -0.0277128
0.0137084 0.902628 -0.026509101
-0.073183 0.90286201 -0.025432
0.017876601 0.90302402 -0.0165668
-0.081259601 0.90317798 -0.0154956
0.020418501 0.90302497 -0.0127134
-0.084483802 0.90252101 -0.012213
0.0218805 0.90317303 -0.0102793
-0.085831001 0.90251702 -0.0097190002
0.0256167 0.90305102 -0.0049926001
-0.088589303 0.90270501 -0.0033692
-0.094753303 0.90246898 0.0097875996
-0.096005902 0.90243101 0.0124087
0.031364601 0.90260202 0.0137134
-0.097229697 0.90241998 0.0150567
0.032003101 0.90291798 0.017058
-0.099065103 0.902969 0.0221083
-0.10006 0.90287101 0.0252649
0.035541099 0.90262699 0.0276387
0.037006401 0.902771 0.0326319
0.037997499 0.90237802 0.035313498
-0.104217 0.902803 0.0354429
0.038351201 0.90287298 0.038280401
0.038405299 0.902978 0.0419994
-0.106897 0.90183902 0.0426073
0.0383786 0.90299702 0.0459322
-0.107997 0.90253502 0.047192201
0.038634501 0.90287799 0.048776701
-0.108379 0.90273899 0.050878599
0.039074 0.90248603 0.052223802
-0.107954 0.90308702 0.053588301
0.039159399 0.90261501 0.057265401
-0.107017 0.90309697 0.060535699
-0.107146 0.901999 0.065377399
0.038459901 0.90327501 0.067964502
0.0381421 0.90301198 0.071447201
-0.105945 0.90313101 0.070833698
0.0376985 0.90221798 0.075386003
0.036712199 0.90276301 0.0791374
-0.105622 0.90276903 0.078507699
-0.104813 0.90207601 0.082802698
0.0344465 0.90281802 0.0873475
-0.099579103 0.90354103 0.090459697
-0.099113099 0.90239298 0.093023799
0.032238599 0.90322202 0.092855297
-0.101284 0.90427601 0.093842
-0.097087003 0.90308702 0.097107798
0.0257595 0.90321302 0.100597
0.023213699 0.90326101 0.103183
-0.102351 0.90263098 0.103658
0.021679901 0.90297502 0.105552
-0.10302 0.90306699 0.10724
0.017629201 0.90278101 0.111776
-0.094831303 0.90205097 0.112543
-0.0943515 0.903072 0.11508
0.0134 0.902448 0.11794
-0.090468504 0.90336102 0.118826
0.0114895 0.90313202 0.119872
0.0096576 0.90272599 0.124337
-0.0757223 0.902758 0.12620001
-0.072875701 0.90443701 0.126499
-0.072299197 0.90331602 0.130355
0.0035310001 0.90326798 0.13232
-0.00059770001 0.90356302 0.13189501
-0.056065299 0.90262401 0.13244
-0.070276298 0.90244901 0.13342001
-0.051318601 0.903364 0.135362
-0.056642499 0.90298498 0.138172
-0.062188499 0.90325898 0.138236
-0.065967999 0.90337002 0.137869
-0.049040601 0.90321898 0.141482
-0.0038536 0.903108 0.141734
-0.050776001 0.902291 0.14361399
-0.0487151 0.90289599 0.148387
0.197852 0.90389699 -0.167418
0.195437 0.90390402 -0.165804
-0.194703 0.90436202 -0.166545
0.19322699 0.90345699 -0.164166
-0.191808 0.90407097 -0.16431201
0.19124 0.90426803 -0.16232
-0.18892001 0.90381098 -0.162036
0.185119 0.90395302 -0.158096
0.182741 0.90389299 -0.15642101
0.179903 0.90396798 -0.154301
-0.17851099 0.90366602 -0.154367
0.177559 0.90372902 -0.15277199
0.17508601 0.90361798 -0.151344
-0.172314 0.90389198 -0.150189
0.171755 0.90429199 -0.149546
0.15992901 0.90417397 -0.14432099
-0.160786 0.90394199 -0.14402001
0.14377099 0.903938 -0.14110801
0.13811401 0.90437901 -0.13932399
0.13318001 0.90421098 -0.137861
-0.14099 0.903997 -0.136086
0.121122 0.90451598 -0.13414399
0.108931 0.90350503 -0.131923
-0.13439099 0.90377498 -0.132723
0.105275 0.90373498 -0.13085
0.102399 0.90405297 -0.129869
-0.130768 0.90390497 -0.129713
0.099533401 0.90434003 -0.12884299
-0.128667 0.90407801 -0.12681399
0.089113303 0.904441 -0.123798
-0.12688001 0.903588 -0.122202
0.085456401 0.904221 -0.120994
-0.125531 0.90352702 -0.119673
-0.123162 0.903759 -0.116796
-0.118696 0.90447497 -0.113516
0.078855298 0.90370703 -0.110516
0.076988198 0.90368998 -0.107596
0.0753261 0.90393102 -0.105223
0.0715845 0.90390199 -0.0998476
0.070401803 0.90429097 -0.097224601
-0.097773902 0.90422601 -0.098350801
-0.094691202 0.90373898 -0.094972096
0.069123402 0.90396202 -0.092801899
-0.093041599 0.90336603 -0.092762798
-0.090958796 0.90385503 -0.090980001
0.068295598 0.90392703 -0.088121198
-0.088918097 0.90440798 -0.089143001
-0.086994402 0.90378797 -0.084627397
0.067524701 0.90400398 -0.083295397
-0.085199498 0.90447599 -0.082567997
-0.083779499 0.90408301 -0.077740699
0.066611104 0.90382999 -0.076773196
-0.081965402 0.90389401 -0.071645498
-0.080894098 0.90420502 -0.069116198
0.035571199 0.90379399 -0.068089902
0.031666499 0.90419 -0.066227801
-0.079919301 0.90407699 -0.0647607
0.063775398 0.90402102 -0.063676298
-0.079244599 0.90371799 -0.061434198
0.033777401 0.90358901 -0.059980199
0.031111 0.90496802 -0.060021799
0.0262438 0.90397203 -0.0602483
0.03252 0.90407801 -0.057394501
0.061410099 0.903961 -0.056041699
0.031949099 0.90383798 -0.054696199
-0.071631297 0.903768 -0.054940101
0.060269799 0.90418702 -0.053226199
0.0304354 0.90421301 -0.052150201
-0.062967896 0.90419501 -0.051795602
0.059110001 0.90417397 -0.050615702
0.032588899 0.903418 -0.0505822
0.025164099 0.90408099 -0.051228099
-0.060159799 0.90414298 -0.0503444
-0.0583377 0.90385097 -0.0480395
0.033395801 0.90323502 -0.047443699
0.030858399 0.90434098 -0.0478561
0.0181516 0.90355903 -0.045590501
0.0314795 0.90377802 -0.0449728
0.029216999 0.90429002 -0.0433442
0.0266294 0.905316 -0.042624298
0.051532801 0.90430897 -0.040216599
-0.059930898 0.90381199 -0.040561501
0.0122365 0.90382499 -0.0394224
0.0380654 0.90381402 -0.0380737
-0.061470099 0.90405899 -0.0382559
0.0104096 0.90432298 -0.036247801
0.0413079 0.90350997 -0.034962099
0.0107848 0.90399301 -0.032859001
-0.067040898 0.90446901 -0.0308764
0.0114076 0.90430403 -0.029489599
-0.069392502 0.90424401 -0.0281129
0.01366 0.90407199 -0.024109701
-0.0748225 0.903234 -0.023223801
0.0150878 0.90394402 -0.021231299
-0.076481998 0.90356201 -0.021009199
-0.078116998 0.90390801 -0.0187409
-0.082524799 0.90449297 -0.0128434
0.023449 0.90344602 -0.0079568997
-0.085900798 0.90402299 -0.0073032998
0.0264351 0.903871 -0.0019801999
-0.0892592 0.90346301 -0.0002166
0.027584 0.90369999 0.00080759998
-0.090059698 0.904109 0.0031365
0.0281907 0.90434498 0.0040096999
-0.091838904 0.903584 0.0060978001
0.029152 0.90404201 0.0068997
0.0298698 0.90389001 0.0097816996
-0.0956496 0.90448999 0.0142335
-0.097661197 0.90402198 0.0184687
0.032587301 0.90359598 0.020278201
0.033692699 0.90344298 0.0230028
-0.101522 0.90387201 0.0291082
0.035626002 0.90425003 0.030381801
-0.102847 0.90418601 0.032632399
-0.104715 0.90396899 0.038040701
-0.1057 0.904154 0.041521199
-0.106577 0.90420997 0.044305
0.038384099 0.90461701 0.0548415
-0.106559 0.90454602 0.056143299
0.038581699 0.90452498 0.059938699
0.038962401 0.903409 0.062674999
-0.105758 0.904522 0.062659502
-0.105522 0.90430802 0.066012397
-0.105343 0.90381098 0.074304201
-0.10361 0.90417898 0.080618098
0.035456099 0.903943 0.081687503
0.0344464 0.90410298 0.0847551
-0.102719 0.90384299 0.084707402
-0.101374 0.903934 0.0872292
0.0329157 0.90388101 0.089686103
0.030437401 0.90394801 0.094921403
0.0288601 0.90362501 0.097192198
