ply
format ascii 1.0
element vertex 1283
property float x
property float y
property float z
property uchar red
property uchar green
property uchar blue
end_header
0.448645 0.061759 0.601268 114 102 62
0.447225 0.060483 0.608431 39 34 28
0.449408 0.062051 0.605096 73 67 53
0.448787 0.062201 0.597363 99 90 59
0.450290 0.061881 0.620188 170 156 68
0.449391 0.060618 0.624606 148 135 65
0.449066 0.060651 0.615530 29 30 25
0.449999 0.062051 0.612632 19 19 17
0.451992 0.059728 0.618756 187 174 80
0.451731 0.062175 0.616654 18 18 10
0.457080 0.061034 0.614642 156 144 68
0.452594 0.063725 0.599803 146 136 85
0.456694 0.064831 0.605729 110 103 49
0.451814 0.063972 0.603048 60 57 40
0.454237 0.063972 0.596070 88 83 54
0.451331 0.064422 0.606661 13 15 2
0.455725 0.064534 0.601443 157 147 85
0.453912 0.064249 0.609318 32 30 33
0.457102 0.064757 0.598351 125 116 61
0.456918 0.064963 0.609088 77 70 60
0.458614 0.065265 0.602559 174 164 92
0.460174 0.065664 0.606154 138 130 67
0.459230 0.065232 0.595698 173 163 91
0.460313 0.065616 0.599620 173 164 87
0.460798 0.065845 0.609205 64 60 48
0.463258 0.065720 0.607074 151 142 99
0.451573 0.062615 0.623307 71 65 49
0.456502 0.064930 0.618169 32 31 27
0.452697 0.063880 0.620659 15 15 3
0.452047 0.064320 0.611978 24 23 18
0.454087 0.065456 0.624456 19 20 15
0.457093 0.064948 0.612407 35 33 34
0.455003 0.064539 0.615322 29 27 28
0.456094 0.064872 0.621558 32 30 33
0.448276 0.065746 0.621876 191 179 129
0.448103 0.065784 0.617445 190 179 133
0.452658 0.065057 0.617473 48 48 40
0.448745 0.065492 0.624956 190 179 133
0.457135 0.064798 0.624565 24 24 22
0.451201 0.065789 0.623086 52 48 39
0.460149 0.065398 0.614164 30 29 27
0.460782 0.065756 0.618844 29 27 28
0.460224 0.065804 0.624548 30 29 25
0.463788 0.065756 0.617503 23 24 19
0.462106 0.065621 0.622100 24 23 21
0.467061 0.065873 0.616737 25 21 22
0.459183 0.064838 0.621442 26 24 25
0.458747 0.071380 0.566341 119 108 63
0.455877 0.070213 0.571797 153 143 82
0.466236 0.066630 0.585777 107 98 55
0.467066 0.066447 0.571724 195 184 105
0.451948 0.068998 0.586671 176 165 143
0.451426 0.068589 0.591340 175 167 121
0.454111 0.069822 0.584012 174 163 117
0.452746 0.069349 0.580057 163 151 103
0.460137 0.072144 0.590523 139 123 71
0.466569 0.066422 0.580881 87 80 51
0.461090 0.072599 0.581389 174 162 120
0.451299 0.068508 0.566686 148 136 98
0.455727 0.070289 0.587510 164 154 105
0.454728 0.069672 0.568907 127 115 55
0.453775 0.069730 0.576875 149 137 77
0.449111 0.067636 0.572671 156 143 90
0.448729 0.067291 0.590331 167 153 90
0.461797 0.072332 0.565460 129 119 60
0.463180 0.072899 0.568957 149 139 80
0.449848 0.068084 0.583846 157 145 97
0.458402 0.071656 0.579285 175 161 132
0.467136 0.066971 0.589275 126 115 59
0.454840 0.069913 0.591157 167 154 109
0.463433 0.073196 0.586369 166 151 86
0.463035 0.073153 0.572453 115 101 54
0.457617 0.071110 0.584878 172 159 115
0.459466 0.071791 0.576260 163 153 100
0.465520 0.066696 0.593105 145 136 67
0.462447 0.072991 0.576768 161 151 98
0.450422 0.068198 0.578225 170 157 104
0.463417 0.073148 0.593147 167 157 88
0.460332 0.072091 0.587102 175 164 119
0.447974 0.067141 0.575943 177 167 108
0.453478 0.069174 0.564444 128 118 59
0.449681 0.067766 0.569515 134 122 62
0.452771 0.069031 0.573878 162 152 91
0.466741 0.066439 0.574997 154 146 71
0.459288 0.071761 0.573061 143 130 75
0.457538 0.070975 0.592256 168 160 111
0.463066 0.072955 0.589508 166 150 90
0.455410 0.070480 0.581248 172 161 115
0.458533 0.071202 0.570023 151 141 82
0.456235 0.070414 0.574878 162 151 97
0.449459 0.067850 0.593649 176 170 156
0.460486 0.072033 0.593705 170 161 94
0.467285 0.066457 0.568637 156 150 88
0.452302 0.068996 0.570688 129 118 64
0.476284 0.068846 0.572857 158 146 74
0.471538 0.067489 0.564963 150 137 69
0.470031 0.067248 0.576212 166 152 79
0.471124 0.067481 0.571060 137 131 71
0.476303 0.068772 0.566355 153 142 76
0.473022 0.068048 0.577047 85 80 51
0.472720 0.067906 0.573698 152 138 73
0.474869 0.068439 0.569501 151 139 67
0.476740 0.069042 0.577097 148 142 84
0.468557 0.066714 0.565820 173 162 82
0.472187 0.067697 0.568019 161 148 80
0.479149 0.069479 0.564946 174 158 81
0.478605 0.069463 0.568802 196 188 149
0.478776 0.069547 0.574765 115 109 59
0.474780 0.068729 0.583529 94 89 49
0.468660 0.067471 0.593039 140 131 64
0.471890 0.067896 0.581348 97 89 52
0.476975 0.069263 0.581225 141 129 71
0.472090 0.068096 0.585145 90 84 52
0.474602 0.068831 0.586896 166 153 85
0.476026 0.069380 0.591609 156 144 68
0.471554 0.068180 0.591434 177 166 86
0.468976 0.067197 0.583063 134 122 70
0.470289 0.067738 0.587645 184 173 93
0.473797 0.068810 0.593671 142 133 66
0.469389 0.067115 0.579560 132 122 73
0.477311 0.069486 0.585344 134 128 70
0.477050 0.069545 0.588686 162 151 72
0.486179 0.071570 0.572775 99 95 50
0.481330 0.070137 0.567119 163 149 76
0.485385 0.071278 0.576029 103 94 55
0.486826 0.071695 0.566853 151 137 64
0.484195 0.070904 0.565138 145 135 63
0.483676 0.070894 0.570226 199 196 151
0.479532 0.069712 0.571757 175 163 89
0.482274 0.070488 0.574407 101 92 51
0.480559 0.069995 0.577975 92 88 63
0.487567 0.071961 0.569884 148 135 67
0.487617 0.072101 0.578028 132 122 63
0.482457 0.070826 0.582663 114 108 60
0.484433 0.071540 0.587899 143 135 63
0.486776 0.072043 0.582832 150 136 71
0.480800 0.070518 0.587793 135 124 62
0.483992 0.071148 0.579764 99 90 51
0.479368 0.070244 0.593247 113 102 57
0.482993 0.071298 0.593253 133 126 56
0.487427 0.072490 0.590797 125 118 48
0.487290 0.072340 0.586717 128 123 57
0.486041 0.072124 0.593636 147 139 64
0.479423 0.070005 0.583149 139 128 64
0.450393 0.067265 0.597310 165 152 108
0.453050 0.069298 0.603306 167 157 85
0.452775 0.069232 0.607519 168 157 93
0.452891 0.069199 0.595970 179 171 124
0.450268 0.066767 0.601765 145 135 73
0.453058 0.069247 0.599817 173 164 107
0.449244 0.067342 0.607294 156 146 77
0.451684 0.067324 0.605246 138 128 57
0.465279 0.066912 0.603506 149 141 66
0.463938 0.066447 0.599242 124 112 52
0.465387 0.066996 0.609334 30 29 27
0.467052 0.067255 0.600441 130 120 59
0.467144 0.067420 0.606087 122 112 53
0.466994 0.067179 0.597111 127 117 55
0.462045 0.066132 0.603042 171 162 85
0.462015 0.065906 0.596861 131 122 57
0.448969 0.067174 0.613240 184 174 113
0.453480 0.069184 0.619745 184 169 126
0.453790 0.068541 0.624590 158 140 74
0.452708 0.069247 0.612949 177 167 114
0.450435 0.067949 0.617437 162 150 92
0.450574 0.067860 0.610368 154 141 96
0.450341 0.067926 0.620836 152 138 93
0.453466 0.068025 0.616671 142 131 69
0.456655 0.067339 0.615966 71 66 47
0.456639 0.067771 0.623011 60 57 40
0.466936 0.067420 0.612665 24 23 21
0.465679 0.067570 0.624465 113 106 54
0.463838 0.066597 0.613814 31 31 31
0.466345 0.067563 0.619635 142 133 66
0.460544 0.069164 0.624126 82 76 64
0.463941 0.069222 0.621212 68 62 48
0.466306 0.069128 0.615217 81 75 59
0.463267 0.069080 0.617207 103 98 79
0.455698 0.070396 0.607977 153 144 77
0.456222 0.070421 0.599259 165 151 86
0.457122 0.070792 0.595337 176 166 113
0.456753 0.070874 0.604407 176 165 137
0.458279 0.071232 0.601674 148 138 67
0.461868 0.072848 0.608469 156 144 86
0.462801 0.072965 0.598801 156 146 75
0.458320 0.071634 0.609359 139 126 74
0.461024 0.072648 0.605197 150 134 83
0.461294 0.072424 0.601549 158 147 83
0.459853 0.071824 0.598776 168 155 85
0.455764 0.070505 0.621417 144 135 68
0.456023 0.070841 0.613015 154 143 81
0.456321 0.070673 0.616779 177 159 95
0.456814 0.070917 0.624831 180 169 113
0.461269 0.072640 0.618369 155 145 83
0.459728 0.072190 0.623149 141 128 76
0.459942 0.072521 0.612376 173 162 134
0.461477 0.072815 0.615288 162 152 91
0.458604 0.071590 0.619877 159 150 85
0.462484 0.073141 0.621867 162 150 90
0.462268 0.073064 0.624964 159 149 88
0.470700 0.068302 0.605771 131 121 60
0.471516 0.068488 0.602390 136 126 64
0.470616 0.068078 0.596411 123 113 52
0.475130 0.069344 0.601399 121 110 56
0.473722 0.068927 0.598651 131 121 60
0.473339 0.068935 0.608006 134 123 67
0.470092 0.068261 0.608985 25 24 22
0.476062 0.069469 0.596053 129 122 67
0.474255 0.069194 0.604496 118 107 51
0.468660 0.067753 0.603331 141 131 72
0.470075 0.068002 0.599475 141 130 64
0.476187 0.069377 0.609276 29 28 24
0.473114 0.069293 0.618819 130 119 55
0.470958 0.068920 0.624773 29 28 26
0.471224 0.069011 0.615671 24 22 23
0.469259 0.068279 0.618902 123 114 55
0.471931 0.069100 0.621662 177 166 87
0.474139 0.069293 0.624381 27 26 22
0.473997 0.069362 0.612116 25 24 22
0.475379 0.069519 0.616696 21 20 16
0.470983 0.068528 0.611941 22 21 19
0.468152 0.068119 0.622516 134 126 63
0.477295 0.069502 0.619468 32 29 10
0.477386 0.069512 0.623599 22 21 17
0.477136 0.069469 0.613898 15 15 13
0.479401 0.069410 0.617162 22 18 15
0.482257 0.069527 0.619826 21 22 17
0.481025 0.069535 0.624082 22 21 16
0.476853 0.069885 0.606295 98 90 51
0.477461 0.069936 0.598984 130 120 58
0.477464 0.070111 0.603259 190 181 140
0.483862 0.071735 0.602059 174 162 86
0.481100 0.070935 0.600908 134 124 62
0.480820 0.070958 0.607917 80 75 46
0.484205 0.071857 0.605150 161 148 70
0.483667 0.071656 0.608966 83 77 65
0.487315 0.072632 0.600773 146 138 63
0.487576 0.072739 0.605062 127 122 56
0.482277 0.071191 0.597142 156 144 70
0.480156 0.070777 0.604766 168 154 79
0.485261 0.072020 0.598470 173 160 90
0.486657 0.072457 0.608925 91 87 60
0.487477 0.072607 0.596376 153 145 72
0.479285 0.070335 0.596478 155 147 72
0.474921 0.069860 0.621412 184 172 100
0.467605 0.070053 0.624867 160 151 118
0.481894 0.071224 0.612580 22 21 16
0.481885 0.071316 0.616619 21 20 18
0.479118 0.070518 0.610917 24 23 21
0.485066 0.071265 0.613088 24 25 20
0.486299 0.071240 0.616011 19 19 17
0.479745 0.071090 0.620741 20 19 17
0.483376 0.071324 0.623039 23 23 23
0.486132 0.071232 0.624613 18 18 16
0.485991 0.071298 0.619975 20 19 17
0.479079 0.072231 0.615495 18 16 21
0.487559 0.072739 0.611982 23 22 18
0.478047 0.072622 0.623464 23 21 22
0.482435 0.073031 0.619267 20 20 20
0.487331 0.073207 0.622323 15 14 9
0.421008 0.074653 0.512163 40 73 103
0.423681 0.074045 0.515162 59 75 87
0.424080 0.075018 0.511672 134 164 191
0.424014 0.076843 0.505585 34 39 66
0.423431 0.076602 0.502304 20 30 22
0.426038 0.075768 0.514171 73 77 65
0.426553 0.076635 0.510640 179 196 241
0.411386 0.074551 0.524215 31 39 65
0.406795 0.074993 0.527621 25 30 36
0.410028 0.074993 0.529347 34 28 16
0.415791 0.076556 0.523374 33 32 62
0.409252 0.076726 0.526489 20 31 35
0.414423 0.075135 0.525831 25 38 46
0.412757 0.076510 0.528046 17 21 35
0.415909 0.076561 0.528157 39 38 33
0.421515 0.074945 0.522861 32 41 57
0.423898 0.073580 0.518667 42 48 65
0.426346 0.074985 0.517302 82 86 85
0.424720 0.074894 0.521446 43 46 55
0.421524 0.074983 0.526797 29 23 9
0.418989 0.076757 0.523182 35 35 63
0.418095 0.075245 0.526381 22 20 33
0.424209 0.076777 0.526007 24 20 44
0.421158 0.078624 0.504702 28 23 52
0.420385 0.078571 0.501609 21 18 44
0.426004 0.077783 0.507767 133 150 219
0.425696 0.078675 0.503712 24 26 35
0.421999 0.078566 0.507684 71 87 111
0.419561 0.077613 0.510819 49 55 117
0.423489 0.077717 0.510290 106 127 171
0.426229 0.080482 0.506185 62 79 118
0.409542 0.078680 0.529079 32 27 7
0.410717 0.079882 0.526372 27 27 37
0.414281 0.080106 0.527738 50 75 71
0.421465 0.078642 0.522911 14 34 48
0.425437 0.077659 0.522686 41 38 65
0.419694 0.078134 0.527063 27 27 55
0.426632 0.078683 0.526115 18 27 44
0.426552 0.080482 0.522062 73 84 146
0.417345 0.080424 0.527463 64 81 63
0.422619 0.079867 0.526782 48 66 72
0.433531 0.074985 0.500514 28 27 58
0.434772 0.074843 0.507700 105 121 144
0.434173 0.074894 0.504644 46 52 65
0.429804 0.075021 0.512322 115 138 169
0.436162 0.074111 0.510827 118 158 184
0.435937 0.074836 0.515355 131 155 165
0.431716 0.076701 0.503012 17 21 46
0.431924 0.076851 0.506384 71 92 106
0.436812 0.076134 0.502883 28 29 47
0.429179 0.075489 0.515511 67 67 101
0.433082 0.076302 0.509832 116 136 145
0.434009 0.075954 0.513063 130 156 189
0.441641 0.076086 0.503341 59 54 94
0.445047 0.074612 0.503424 50 64 97
0.436778 0.074785 0.519144 25 17 55
0.427726 0.074978 0.525624 26 25 23
0.432782 0.074968 0.525090 24 21 14
0.429121 0.075791 0.519398 35 50 48
0.431352 0.076769 0.517318 46 45 68
0.435829 0.076485 0.522183 30 26 49
0.434034 0.076823 0.519206 21 17 35
0.430243 0.076774 0.525714 36 32 33
0.439984 0.076134 0.523840 26 26 46
0.445247 0.075461 0.522982 24 21 36
0.428652 0.078500 0.509349 118 133 208
0.430203 0.078419 0.513605 119 141 164
0.427920 0.080434 0.512830 223 253 254
0.429376 0.078408 0.504170 42 38 80
0.428738 0.078355 0.521488 46 44 65
0.431727 0.078680 0.520214 17 20 55
0.432876 0.078205 0.523112 55 78 72
0.436430 0.078307 0.524781 33 31 32
0.429254 0.080218 0.518134 27 24 40
0.435049 0.080454 0.522395 71 82 107
0.429196 0.080413 0.525093 96 115 112
0.432372 0.080124 0.525543 39 34 31
0.444006 0.080355 0.523132 50 46 69
0.440342 0.080149 0.523848 62 81 91
0.446896 0.078292 0.522558 32 19 39
0.442807 0.077476 0.523390 21 24 40
0.424455 0.081821 0.502904 23 29 60
0.409469 0.081923 0.528654 32 27 47
0.411326 0.083664 0.526456 68 87 83
0.414685 0.083847 0.527927 26 24 38
0.426623 0.081908 0.517395 45 43 57
0.419972 0.082116 0.526919 38 60 67
0.424972 0.082230 0.526507 57 70 63
0.417766 0.084154 0.527744 55 80 81
0.422374 0.084063 0.526765 60 82 52
0.410085 0.085587 0.528763 59 90 81
0.407021 0.084820 0.529087 18 40 51
0.413319 0.086004 0.526186 72 81 98
0.416333 0.087628 0.527544 28 24 46
0.412267 0.087778 0.528604 73 78 102
0.426346 0.085986 0.526248 43 81 58
0.420767 0.086904 0.526906 51 53 76
0.423706 0.087803 0.526690 58 73 82
0.430894 0.082357 0.523382 62 76 68
0.435947 0.082246 0.524874 22 21 16
0.433676 0.083890 0.522824 62 75 63
0.428627 0.083498 0.525907 75 73 94
0.432326 0.083900 0.525723 40 38 39
0.446662 0.082248 0.522664 28 25 41
0.442615 0.083796 0.523397 65 86 92
0.438677 0.083481 0.524138 0 29 48
0.435108 0.085414 0.525307 31 31 33
0.433800 0.087193 0.522558 65 99 98
0.429611 0.087666 0.526142 34 33 29
0.436720 0.087552 0.523730 42 43 63
0.432637 0.087684 0.525435 21 22 8
0.440459 0.087669 0.523963 19 22 40
0.445280 0.086703 0.523139 0 29 48
0.451607 0.076449 0.506468 70 65 65
0.451101 0.076353 0.503316 51 31 38
0.454913 0.076741 0.506910 28 30 39
0.453797 0.074800 0.504012 23 26 57
0.465247 0.075415 0.514343 22 20 31
0.461958 0.075176 0.511873 31 29 43
0.459485 0.076599 0.506718 26 21 43
0.461566 0.074152 0.507526 23 26 35
0.466146 0.076208 0.508192 26 17 36
0.451816 0.076589 0.521754 25 22 37
0.456881 0.076434 0.521034 28 26 27
0.461542 0.076315 0.520105 24 19 39
0.464964 0.075224 0.519597 24 20 39
0.462716 0.075123 0.516333 32 23 52
0.465657 0.073893 0.528238 81 74 68
0.467253 0.074337 0.525601 142 129 123
0.464042 0.073410 0.531011 97 90 84
0.467064 0.074335 0.531119 88 81 75
0.466713 0.076780 0.516724 24 20 44
0.453589 0.078665 0.503512 139 154 162
0.456986 0.079514 0.507085 16 10 24
0.457003 0.080169 0.515384 25 21 42
0.457045 0.080528 0.512311 29 23 47
0.462407 0.077250 0.507609 25 25 46
0.459768 0.079054 0.514268 27 22 31
0.459318 0.078896 0.509083 23 21 38
0.461441 0.078314 0.511356 29 24 34
0.462791 0.078004 0.514276 21 22 41
0.452382 0.080261 0.521696 23 22 35
0.455967 0.079387 0.521426 37 35 36
0.449335 0.080157 0.522158 29 18 37
0.464681 0.078713 0.519764 22 20 23
0.459835 0.079778 0.520621 23 19 33
0.461075 0.079003 0.517449 23 21 37
0.477582 0.077184 0.523815 35 33 34
0.485253 0.079844 0.516863 24 22 27
0.483041 0.078167 0.521471 60 53 47
0.468869 0.074848 0.519531 22 19 35
0.471469 0.075476 0.523750 82 75 69
0.468692 0.080149 0.519446 31 30 10
0.487392 0.076337 0.519557 70 63 57
0.484518 0.078655 0.528121 48 44 32
0.486801 0.076531 0.513511 16 12 9
0.474134 0.076292 0.527255 76 69 63
0.477938 0.077260 0.530686 84 76 65
0.473643 0.079123 0.518146 20 19 14
0.477999 0.079773 0.517645 27 25 26
0.485769 0.078480 0.524349 126 116 89
0.476705 0.076851 0.517765 20 18 19
0.480371 0.077623 0.525249 85 78 72
0.470810 0.075262 0.528288 128 115 107
0.481362 0.077448 0.516805 19 18 14
0.487268 0.078642 0.530180 89 83 71
0.481642 0.080535 0.517030 21 20 18
0.479330 0.077466 0.520852 21 21 19
0.470569 0.077776 0.518621 19 17 18
0.474018 0.076375 0.530694 75 68 62
0.483426 0.078525 0.531161 112 97 90
0.480844 0.077819 0.529204 85 77 66
0.473620 0.076365 0.520660 31 27 26
0.477924 0.074688 0.521172 102 91 87
0.484628 0.079003 0.513611 61 54 46
0.477984 0.077186 0.527292 59 51 48
0.485223 0.076579 0.516714 11 9 10
0.468311 0.074249 0.512578 25 23 34
0.479229 0.075021 0.517322 19 17 20
0.471484 0.074958 0.513061 22 15 33
0.471084 0.075283 0.516391 24 21 34
0.469710 0.074658 0.508034 25 21 42
0.487455 0.078500 0.526950 126 114 76
0.474623 0.076335 0.523603 98 84 83
0.468186 0.074703 0.522595 21 19 20
0.473640 0.073875 0.509025 22 18 36
0.466599 0.074559 0.547214 86 77 68
0.466077 0.074139 0.534433 91 84 78
0.467129 0.074203 0.558276 139 127 89
0.465989 0.074147 0.541162 76 69 63
0.466077 0.073832 0.555151 113 103 50
0.466902 0.074373 0.537506 84 75 70
0.466369 0.074048 0.551287 120 111 56
0.464770 0.073806 0.544692 78 69 64
0.467205 0.074249 0.561596 113 99 52
0.481657 0.078469 0.557674 106 99 44
0.477329 0.077300 0.535985 117 104 95
0.476466 0.077283 0.548213 51 47 38
0.479434 0.077671 0.541370 78 69 60
0.476336 0.076922 0.559131 102 95 41
0.480342 0.077804 0.537806 82 73 64
0.487170 0.079717 0.546491 99 91 44
0.472378 0.076149 0.548955 70 65 46
0.486194 0.079809 0.559276 80 70 34
0.480417 0.078129 0.548997 107 95 53
0.484041 0.078957 0.541530 113 99 90
0.472939 0.075979 0.561554 115 105 46
0.472531 0.075814 0.556608 123 112 58
0.474463 0.076762 0.543393 75 68 62
0.476186 0.076937 0.551795 109 100 45
0.473785 0.076665 0.537513 39 35 36
0.477519 0.077346 0.562396 107 98 43
0.484122 0.079120 0.553952 109 100 43
0.469761 0.075029 0.541703 85 75 66
0.470499 0.075539 0.546025 72 63 54
0.480655 0.078332 0.554517 50 46 35
0.481299 0.078129 0.534575 72 65 59
0.472819 0.076149 0.552627 71 63 40
0.469302 0.075219 0.535344 120 110 101
0.482900 0.078891 0.560757 167 154 112
0.482232 0.078678 0.544776 81 75 61
0.485080 0.078985 0.535574 78 72 60
0.486021 0.079567 0.550013 115 106 51
0.468944 0.074861 0.554471 133 119 80
0.477352 0.077212 0.556234 108 98 45
0.487168 0.080009 0.555504 86 74 34
0.487180 0.079224 0.538549 48 41 31
0.483339 0.078546 0.538455 80 71 62
0.470844 0.075412 0.532427 95 84 78
0.483824 0.078983 0.547426 139 124 91
0.470183 0.075072 0.559581 117 108 53
0.469408 0.075046 0.550455 112 105 51
0.470699 0.075522 0.538156 73 64 59
0.482765 0.078736 0.550971 101 91 42
0.487553 0.079293 0.533709 54 48 34
0.474771 0.076670 0.534334 74 65 58
0.477001 0.077219 0.539058 56 49 43
0.487553 0.079666 0.543052 42 39 22
0.477868 0.077679 0.545334 85 75 66
0.479750 0.077954 0.560114 114 105 50
0.486604 0.079809 0.562404 121 110 54
0.472739 0.076106 0.540462 80 71 64
0.467785 0.074597 0.544309 86 77 68
0.455246 0.083918 0.510315 26 29 54
0.455321 0.081862 0.505403 37 40 84
0.453248 0.083376 0.503021 57 54 107
0.454522 0.083709 0.513352 20 22 47
0.457203 0.082119 0.508750 29 26 46
0.449427 0.084113 0.522273 0 29 48
0.454322 0.083966 0.521454 23 26 57
0.455538 0.082843 0.516491 22 24 45
0.457028 0.082502 0.521029 26 25 42
0.465355 0.083859 0.519630 20 17 34
0.461283 0.082802 0.520272 30 22 43
0.459152 0.083143 0.517615 21 24 30
0.454530 0.085633 0.507318 34 26 56
0.453173 0.086317 0.510116 31 33 49
0.454247 0.086832 0.513793 30 24 58
0.451482 0.087857 0.507209 28 26 58
0.450330 0.087765 0.503589 34 39 61
0.452823 0.086218 0.504570 21 26 63
0.456479 0.087381 0.521271 16 27 45
0.450692 0.087043 0.522231 29 24 46
0.457103 0.086050 0.517132 22 20 41
0.462641 0.086050 0.520147 20 22 37
0.459618 0.087290 0.520638 26 24 48
0.465742 0.087575 0.519905 29 28 24
0.473512 0.082718 0.518637 30 28 29
0.478007 0.085664 0.517634 29 25 26
0.471546 0.087417 0.518898 28 27 23
0.482599 0.084871 0.516809 27 27 19
0.487085 0.086988 0.516049 26 24 25
0.469044 0.084139 0.519264 26 25 21
0.485328 0.083440 0.516345 22 21 17
0.475190 0.087074 0.518308 36 35 33
0.479166 0.082744 0.517671 31 29 30
0.484066 0.087730 0.516697 23 22 20
0.480534 0.087643 0.517108 29 25 22
0.466544 0.074315 0.573637 157 146 90
0.466757 0.074226 0.565742 95 86 47
0.466152 0.074205 0.584695 169 157 105
0.465496 0.074454 0.579660 171 160 130
0.466019 0.074081 0.588359 164 156 84
0.466281 0.074124 0.570264 138 124 75
0.466565 0.074198 0.591790 164 156 83
0.466943 0.074714 0.576868 155 143 91
0.463979 0.073590 0.582314 163 153 104
0.478693 0.078195 0.586402 148 139 70
0.468939 0.075018 0.567815 117 104 62
0.477627 0.078070 0.579666 135 126 59
0.483947 0.079527 0.571888 117 108 49
0.483914 0.079735 0.577934 135 125 63
0.473857 0.076569 0.569409 171 160 130
0.469119 0.075453 0.582924 173 160 128
0.483704 0.079760 0.593067 134 121 69
0.477261 0.077603 0.570673 145 135 74
0.473059 0.076419 0.589999 148 133 68
0.487203 0.080515 0.587335 140 132 69
0.483373 0.079544 0.581531 136 124 64
0.472739 0.076505 0.582064 150 140 81
0.484030 0.079161 0.564302 127 117 55
0.476090 0.077377 0.590466 153 139 74
0.480468 0.078767 0.588894 179 168 140
0.478976 0.077870 0.567234 141 132 67
0.475245 0.077280 0.574236 151 142 83
0.472373 0.076604 0.576693 154 142 90
0.473459 0.076597 0.593447 154 145 76
0.471367 0.075644 0.565312 147 133 94
0.482773 0.079278 0.585836 138 129 62
0.479059 0.078253 0.573279 145 135 76
0.471007 0.075822 0.573345 149 138 84
0.487638 0.080307 0.568885 169 156 122
0.474582 0.076945 0.585511 155 139 77
0.479606 0.078691 0.582104 49 43 29
0.474933 0.076747 0.565127 138 125 72
0.470199 0.075547 0.585819 161 152 83
0.480791 0.078594 0.570489 134 124 63
0.485663 0.080142 0.590374 138 128 66
0.480598 0.078942 0.579144 133 117 68
0.486586 0.080332 0.582698 168 151 82
0.485981 0.080373 0.575105 170 157 125
0.476774 0.077636 0.593730 146 134 74
0.470270 0.075529 0.592589 146 138 65
0.481557 0.079168 0.575302 149 141 78
0.470919 0.075552 0.570215 171 157 94
0.474598 0.077425 0.578669 173 163 138
0.480167 0.078129 0.564219 112 104 41
0.470133 0.075905 0.579507 161 151 100
0.470133 0.075489 0.589208 162 152 81
0.479893 0.078759 0.592466 105 95 59
0.475945 0.077478 0.582264 157 148 81
0.482315 0.078787 0.567159 114 108 46
0.477451 0.078210 0.576505 122 108 61
0.486930 0.080515 0.578685 175 163 137
0.487277 0.080383 0.572256 111 98 43
0.486779 0.079926 0.565809 131 122 65
0.486662 0.080492 0.593730 135 125 63
0.464072 0.073855 0.606405 132 115 72
0.466523 0.074673 0.621792 158 146 86
0.466471 0.074411 0.598237 175 164 136
0.465879 0.074381 0.602083 131 120 64
0.465879 0.074863 0.611451 144 127 83
0.466348 0.074647 0.616188 158 146 86
0.462934 0.073506 0.611508 157 145 85
0.467112 0.075077 0.608546 177 166 138
0.464924 0.074231 0.619044 136 122 73
0.466073 0.074081 0.594846 156 148 76
0.465524 0.074373 0.624714 166 154 96
0.467048 0.074688 0.605013 159 149 88
0.481886 0.079384 0.600033 146 138 76
0.479596 0.079285 0.614264 147 138 79
0.470618 0.075961 0.600169 176 165 137
0.482891 0.080426 0.614549 113 103 91
0.485023 0.080248 0.596847 178 166 140
0.482594 0.080327 0.607744 149 139 80
0.472818 0.077112 0.624173 153 142 88
0.478889 0.079168 0.620892 143 134 77
0.474559 0.077870 0.610367 143 132 70
0.478503 0.078751 0.602691 116 105 77
0.482800 0.080457 0.621919 178 167 137
0.485100 0.080342 0.599958 145 135 73
0.469471 0.076096 0.610942 152 138 77
0.475058 0.077827 0.616704 146 137 78
0.470245 0.076088 0.607944 146 135 73
0.474076 0.076886 0.598176 150 140 78
0.480151 0.079900 0.624391 83 78 48
0.481104 0.079768 0.618028 152 142 83
0.481885 0.079699 0.604613 150 134 72
0.469734 0.076144 0.615781 137 123 76
0.469795 0.075987 0.624040 154 146 84
0.476291 0.078269 0.607761 138 128 69
0.486132 0.073956 0.617618 18 14 15
0.479546 0.078528 0.595803 148 139 74
0.473964 0.077687 0.620885 132 119 75
0.471761 0.076696 0.613198 152 141 79
0.476571 0.078683 0.624284 177 166 136
0.468397 0.075397 0.618611 154 142 82
0.478639 0.078403 0.599151 152 138 77
0.470867 0.076561 0.620353 144 131 86
0.475413 0.077877 0.604690 126 111 68
0.475266 0.077954 0.613448 144 134 72
0.479277 0.079285 0.606580 131 116 85
0.472243 0.076543 0.604580 147 132 67
0.483527 0.080500 0.610892 135 125 66
0.470079 0.075514 0.596369 153 145 70
0.476132 0.077661 0.600991 142 132 70
0.477914 0.078769 0.617678 144 134 75
0.479063 0.079278 0.610659 147 134 79
0.482010 0.073613 0.624604 22 22 22
0.484559 0.080375 0.603114 137 127 66
0.473235 0.077128 0.607511 143 132 70
0.469376 0.075705 0.603199 134 120 73
0.485616 0.074546 0.624929 21 20 16
0.486837 0.081465 0.621350 141 131 72
0.487128 0.081425 0.614014 137 126 70
0.487195 0.081458 0.610209 129 118 64
0.483310 0.080675 0.624964 138 130 67
0.486604 0.081300 0.617503 139 129 67
0.487528 0.081275 0.603472 131 121 60
0.486119 0.081183 0.606224 125 111 62
0.487636 0.081890 0.624590 127 117 58
0.446230 0.061197 0.632284 191 182 143
0.446729 0.062386 0.628828 187 178 137
0.446679 0.061311 0.635989 181 172 131
0.446927 0.061415 0.640204 196 185 131
0.446454 0.060376 0.644599 169 154 121
0.445105 0.060933 0.626163 184 174 149
0.446901 0.060076 0.664090 170 158 110
0.446502 0.061591 0.660793 169 155 108
0.449615 0.060234 0.633186 115 103 51
0.450832 0.061715 0.628578 136 132 71
0.450723 0.060900 0.637375 21 20 15
0.452738 0.062114 0.639540 14 15 10
0.451805 0.062198 0.634385 25 24 19
0.449765 0.059898 0.640289 26 25 21
0.451222 0.060432 0.654004 197 182 91
0.448725 0.061822 0.655434 203 190 138
0.453163 0.062198 0.652039 173 163 74
0.450898 0.060333 0.649316 144 136 55
0.451630 0.061449 0.642563 16 17 12
0.450057 0.059634 0.644969 24 23 21
0.452513 0.061855 0.646251 76 68 45
0.448642 0.061649 0.652262 198 187 155
0.453242 0.062015 0.655981 157 146 66
0.448093 0.061957 0.647657 184 173 107
0.454986 0.062140 0.642754 17 16 14
0.455215 0.065675 0.636850 23 23 23
0.452896 0.063804 0.626817 132 121 75
0.456392 0.065654 0.629922 26 24 25
0.449577 0.065392 0.633366 181 172 129
0.448825 0.065311 0.629254 179 168 102
0.454935 0.065212 0.632895 16 14 15
0.450343 0.065642 0.640353 185 176 133
0.453296 0.063756 0.630247 71 66 47
0.449994 0.065469 0.636955 172 162 113
0.456059 0.065570 0.640348 18 17 12
0.448109 0.063230 0.638006 191 180 126
0.458834 0.065697 0.627487 30 28 29
0.457766 0.065603 0.634469 30 28 29
0.461188 0.065797 0.635901 27 25 26
0.459390 0.065863 0.639432 33 31 32
0.461205 0.065146 0.630005 27 25 26
0.462654 0.065720 0.633003 25 23 24
0.465112 0.065182 0.629103 31 30 28
0.463312 0.065830 0.638799 26 24 25
0.455788 0.064338 0.656196 136 126 55
0.456392 0.065878 0.646243 62 58 47
0.451523 0.064747 0.656134 195 184 154
0.456708 0.065321 0.651597 73 68 49
0.449557 0.064030 0.643539 199 186 151
0.450191 0.064521 0.649056 194 184 122
0.454876 0.063964 0.648833 145 135 74
0.450557 0.064147 0.652096 195 184 152
0.450810 0.065700 0.645998 193 182 152
0.453816 0.061532 0.668314 160 149 67
0.449732 0.061967 0.665722 174 162 112
0.452076 0.060374 0.663484 154 142 56
0.453362 0.061891 0.661065 189 176 82
0.452967 0.060607 0.671261 152 143 66
0.449624 0.061898 0.660714 196 185 155
0.450348 0.061482 0.669428 195 183 143
0.454166 0.062132 0.665308 147 136 56
0.451934 0.060582 0.658588 177 169 70
0.449933 0.060877 0.673814 201 189 131
0.454196 0.060798 0.682352 157 149 66
0.453575 0.060783 0.675883 138 128 57
0.454274 0.060999 0.679056 76 68 45
0.451240 0.060567 0.686128 193 182 150
0.455245 0.061332 0.687498 151 143 58
0.451198 0.061751 0.679718 193 182 126
0.455115 0.062213 0.673418 142 132 60
0.450290 0.060508 0.676985 184 175 132
0.455953 0.062158 0.684542 148 139 64
0.458498 0.061665 0.687461 73 64 35
0.455182 0.063596 0.659254 162 151 69
0.452855 0.065321 0.666152 195 186 157
0.456513 0.064030 0.668345 131 121 52
0.456538 0.064379 0.664215 146 134 60
0.452123 0.064096 0.670806 193 183 124
0.452305 0.065164 0.660323 197 188 157
0.451498 0.063972 0.663329 202 193 164
0.457004 0.064305 0.671393 153 141 65
0.457137 0.065054 0.661176 96 88 41
0.457745 0.065794 0.658153 63 61 40
0.458469 0.065837 0.666447 65 60 40
0.455931 0.062806 0.676349 86 75 43
0.453155 0.064056 0.678809 189 178 146
0.454795 0.065006 0.687002 195 184 154
0.454204 0.065705 0.676069 180 171 132
0.456756 0.063281 0.680321 132 124 61
0.452272 0.063398 0.674729 188 178 143
0.454004 0.064363 0.682035 197 187 151
0.454012 0.065822 0.672755 196 186 159
0.452888 0.062729 0.684600 204 193 161
0.459292 0.065311 0.682277 61 56 37
0.458791 0.065403 0.676629 111 103 56
0.459342 0.064861 0.687498 120 113 67
0.458886 0.065771 0.673408 90 81 40
0.462443 0.065591 0.686196 28 26 27
0.468560 0.062971 0.685770 34 31 22
0.451934 0.067982 0.638487 181 170 125
0.456947 0.069098 0.639570 133 123 62
0.450460 0.067466 0.627637 190 179 134
0.456322 0.069408 0.635098 142 127 68
0.455764 0.069039 0.631643 145 133 73
0.455290 0.068673 0.628495 143 133 72
0.451168 0.067791 0.632101 183 173 122
0.453166 0.069016 0.635573 163 153 92
0.453832 0.069324 0.640611 165 153 93
0.465793 0.068078 0.633611 21 20 18
0.466518 0.068145 0.640506 89 82 53
0.462938 0.066978 0.626800 94 87 59
0.466601 0.067936 0.636784 24 23 21
0.466719 0.067984 0.628499 64 57 47
0.460877 0.068246 0.632870 55 54 49
0.463595 0.067611 0.630480 24 24 22
0.458737 0.068005 0.636559 42 41 37
0.463645 0.067685 0.635909 27 27 27
0.458829 0.069288 0.626874 76 70 58
0.454385 0.069377 0.648966 17 15 2
0.451559 0.067174 0.642959 180 169 123
0.453938 0.068437 0.654327 193 181 141
0.452156 0.066770 0.650962 191 177 114
0.453880 0.069443 0.645267 156 142 79
0.457108 0.066719 0.643145 55 53 28
0.457055 0.069049 0.646448 72 63 32
0.456934 0.067403 0.649333 36 33 18
0.462221 0.067486 0.652796 73 68 46
0.466130 0.068577 0.655747 133 123 61
0.458207 0.066678 0.654037 65 62 45
0.465493 0.067969 0.644636 84 77 58
0.459931 0.066711 0.648333 89 84 65
0.460306 0.066605 0.643853 81 76 56
0.466376 0.068503 0.651872 139 129 70
0.464311 0.067827 0.647559 110 105 65
0.461426 0.067293 0.655955 91 86 64
0.462895 0.067293 0.641730 85 80 60
0.467025 0.068584 0.648849 133 122 66
0.457072 0.071092 0.629178 168 157 93
0.461050 0.072955 0.630629 175 161 135
0.460383 0.072673 0.636357 143 128 69
0.458671 0.071740 0.632225 168 156 96
0.459180 0.072088 0.640134 167 157 132
0.462160 0.073181 0.640169 159 147 87
0.459935 0.072172 0.626813 157 142 75
0.457472 0.071250 0.637396 173 160 107
0.461993 0.073163 0.633683 149 138 82
0.464816 0.070188 0.627232 88 79 64
0.456952 0.070424 0.650962 163 147 87
0.456994 0.071057 0.642527 144 133 71
0.456444 0.070302 0.656143 163 153 92
0.459662 0.072213 0.649390 155 145 83
0.459087 0.071939 0.655052 164 154 95
0.462139 0.073080 0.652199 184 169 104
0.460844 0.072665 0.645823 175 163 105
0.462201 0.073123 0.655519 178 166 106
0.472493 0.069382 0.634075 25 24 19
0.475166 0.069024 0.632452 21 21 19
0.470170 0.069042 0.638197 97 90 36
0.470444 0.068943 0.628824 167 158 117
0.469204 0.069042 0.631652 30 30 30
0.473664 0.068729 0.628553 19 19 19
0.476587 0.069377 0.627754 25 24 20
0.469353 0.068551 0.634908 28 26 29
0.472126 0.069550 0.640545 93 85 48
0.478463 0.069433 0.632610 15 15 13
0.481136 0.069524 0.629629 18 18 18
0.469737 0.069499 0.655059 163 154 79
0.469295 0.068991 0.645217 91 83 47
0.470586 0.069507 0.648698 130 118 58
0.469270 0.068833 0.642019 85 81 56
0.469670 0.069324 0.651687 158 149 74
0.471918 0.069524 0.643643 72 66 40
0.474566 0.070124 0.636274 117 110 58
0.477289 0.070815 0.637931 86 82 47
0.475399 0.070333 0.640595 71 66 46
0.472651 0.070589 0.631228 24 24 24
0.476878 0.071529 0.630002 19 19 19
0.472393 0.071227 0.626600 144 134 109
0.475699 0.071715 0.625712 22 21 17
0.480037 0.071115 0.626919 22 21 17
0.483434 0.071240 0.627977 20 18 21
0.486349 0.071331 0.629392 19 18 14
0.479610 0.071380 0.635207 106 96 60
0.479801 0.071362 0.639837 80 76 51
0.482258 0.072028 0.632650 83 77 45
0.487468 0.073214 0.627220 23 22 18
0.486221 0.072986 0.632417 95 87 50
0.482074 0.072040 0.637841 146 135 73
0.485122 0.072653 0.639504 82 77 57
0.485264 0.072836 0.635673 94 86 49
0.473700 0.070457 0.655009 152 143 68
0.473775 0.070333 0.651271 142 132 61
0.477212 0.071062 0.647789 131 121 62
0.474008 0.070256 0.647948 124 113 57
0.476470 0.071054 0.653226 171 164 86
0.477381 0.070940 0.642985 64 59 37
0.474833 0.070424 0.644751 98 89 56
0.477095 0.071362 0.656241 158 149 72
0.480151 0.071778 0.645707 112 104 58
0.482424 0.072071 0.641993 72 68 41
0.482108 0.072378 0.648314 123 113 60
0.484897 0.072960 0.643709 81 74 46
0.485089 0.073128 0.647306 105 98 54
0.481116 0.072307 0.651265 176 167 92
0.479793 0.072012 0.654142 131 123 51
0.482283 0.072678 0.655891 107 100 45
0.483690 0.072937 0.653110 101 95 47
0.453846 0.067570 0.662417 170 154 105
0.454713 0.067951 0.666800 193 181 123
0.456244 0.069352 0.669982 188 179 138
0.455511 0.069494 0.660489 181 171 118
0.453130 0.067044 0.657582 182 169 101
0.454080 0.066704 0.669690 192 179 124
0.455778 0.069435 0.664253 187 176 130
0.459360 0.067169 0.661850 59 56 39
0.461834 0.067545 0.659735 92 88 61
0.462158 0.067702 0.663457 89 85 60
0.460336 0.067672 0.669575 62 58 31
0.467216 0.068988 0.660973 130 120 58
0.465728 0.068683 0.663738 162 149 81
0.465081 0.068350 0.658811 115 103 53
0.460501 0.068251 0.666114 43 40 23
0.464898 0.068511 0.668171 86 85 55
0.464631 0.068444 0.671376 95 85 60
0.467256 0.069428 0.666336 157 149 86
0.456361 0.068462 0.679127 184 170 105
0.456186 0.068678 0.674187 181 173 127
0.455978 0.067004 0.684571 189 181 144
0.457085 0.067842 0.687347 192 180 138
0.457135 0.068693 0.682214 186 177 136
0.465739 0.068800 0.677663 95 89 65
0.461551 0.067461 0.680336 70 65 46
0.467145 0.069377 0.684134 95 90 70
0.463363 0.069001 0.686246 102 93 54
0.461342 0.067636 0.676489 62 59 40
0.463856 0.069192 0.682369 63 57 43
0.467208 0.069329 0.681033 81 76 54
0.466762 0.069410 0.687224 36 34 39
0.463790 0.068277 0.674574 87 83 58
0.467233 0.069128 0.673097 97 86 58
0.461449 0.067143 0.683676 65 62 45
0.461434 0.068500 0.672359 51 48 31
0.457135 0.070711 0.666863 168 152 90
0.461460 0.072597 0.669974 190 181 138
0.459775 0.072216 0.660555 151 134 78
0.461560 0.072988 0.663562 164 151 96
0.461002 0.072063 0.666535 156 143 98
0.462376 0.073204 0.658849 166 155 93
0.458537 0.071130 0.671498 173 164 99
0.459841 0.070584 0.657783 152 140 80
0.458895 0.070706 0.663246 94 84 31
0.462393 0.072139 0.687228 102 91 37
0.458604 0.071075 0.676494 174 164 105
0.462981 0.072892 0.680409 167 155 95
0.462335 0.072340 0.675012 146 137 80
0.459294 0.071400 0.683444 159 146 94
0.464008 0.071964 0.684030 136 121 66
0.459578 0.071514 0.679684 173 163 104
0.458726 0.070645 0.687337 174 159 94
0.469298 0.069519 0.658683 164 157 79
0.467626 0.069260 0.669834 159 148 82
0.469265 0.069537 0.663721 164 151 81
0.475329 0.069319 0.686513 62 56 42
0.471650 0.069217 0.686865 43 42 40
0.468690 0.069420 0.675929 75 69 53
0.471946 0.070221 0.662181 160 152 79
0.472210 0.070411 0.658067 175 164 102
0.475202 0.070887 0.658942 142 133 68
0.474960 0.070935 0.662264 147 138 73
0.472321 0.070521 0.670008 154 146 73
0.471588 0.070195 0.665945 154 145 78
0.474997 0.071087 0.668123 148 139 74
0.475496 0.071303 0.671204 119 105 58
0.476437 0.071354 0.665350 154 146 74
0.479402 0.072111 0.663577 145 134 68
0.482424 0.072861 0.663677 143 139 68
0.479926 0.072144 0.659363 153 145 73
0.482957 0.072912 0.659830 165 156 79
0.479918 0.072437 0.670580 161 154 82
0.480751 0.072536 0.667391 155 148 76
0.483215 0.073212 0.670613 128 119 64
0.470838 0.070061 0.673306 112 104 58
0.470214 0.070104 0.678743 96 92 54
0.472254 0.070561 0.676461 100 95 66
0.475579 0.071346 0.675776 117 113 68
0.473530 0.071049 0.679227 152 140 80
0.471058 0.070343 0.681736 112 105 76
0.471849 0.071364 0.684599 44 41 24
0.475455 0.071164 0.682626 48 46 25
0.476712 0.071695 0.679681 89 80 51
0.469684 0.073196 0.686181 11 1 0
0.477279 0.072114 0.685940 12 12 2
0.474206 0.072396 0.686315 128 123 83
0.480125 0.072548 0.673722 152 140 80
0.481399 0.073181 0.681550 139 129 68
0.481691 0.073003 0.676925 144 132 72
0.481708 0.073003 0.685257 25 23 24
0.485264 0.072780 0.683558 30 26 27
0.478869 0.072330 0.683242 98 89 60
0.478411 0.072162 0.676717 123 116 64
0.483149 0.073135 0.674144 92 88 53
0.485922 0.072996 0.686673 34 30 31
0.456678 0.062198 0.694476 30 29 27
0.454887 0.060125 0.699090 141 131 60
0.456370 0.061931 0.690471 43 42 24
0.456545 0.061324 0.702862 145 136 59
0.452500 0.061964 0.691813 178 166 128
0.452131 0.060694 0.697771 197 187 128
0.456994 0.062173 0.697815 28 27 23
0.453122 0.061718 0.701445 171 157 112
0.453063 0.061840 0.694930 192 182 146
0.452366 0.062107 0.688674 176 163 128
0.461302 0.062219 0.697745 152 135 66
0.461021 0.062089 0.689693 56 54 33
0.465624 0.062064 0.691578 59 48 20
0.458704 0.059555 0.694842 87 75 35
0.456977 0.061057 0.710897 73 68 46
0.455667 0.061957 0.717690 191 180 135
0.456886 0.061273 0.707167 109 99 38
0.453721 0.061149 0.705846 188 179 138
0.454742 0.061482 0.713027 183 173 124
0.454293 0.061382 0.709105 179 167 115
0.456861 0.060658 0.715136 120 109 53
0.458801 0.062107 0.717509 130 121 56
0.456569 0.065164 0.702316 182 173 132
0.454895 0.063931 0.696304 186 177 138
0.454970 0.064805 0.690342 190 180 144
0.454887 0.063916 0.699395 188 177 115
0.455753 0.065296 0.693531 186 177 138
0.460958 0.065647 0.692303 19 18 16
0.460891 0.065204 0.702703 23 21 22
0.460916 0.065802 0.695970 63 55 42
0.465761 0.065428 0.689952 23 22 17
0.461399 0.065304 0.699389 20 20 18
0.458759 0.063921 0.700180 23 21 22
0.458460 0.063873 0.691803 27 25 26
0.464324 0.062727 0.695630 51 50 30
0.465998 0.065331 0.693523 30 30 30
0.464489 0.065494 0.700217 18 18 8
0.460986 0.062546 0.694276 75 69 33
0.461957 0.065636 0.689272 24 20 21
0.456569 0.064190 0.712859 182 169 101
0.456111 0.064198 0.709812 200 188 128
0.457082 0.065314 0.706515 181 171 120
0.457077 0.064358 0.715940 187 173 110
0.455195 0.063591 0.704616 198 189 134
0.461474 0.064554 0.710547 22 20 21
0.462248 0.065138 0.715119 19 18 16
0.462557 0.065304 0.706950 19 17 20
0.459609 0.062813 0.714120 29 28 24
0.459451 0.062973 0.704535 25 24 20
0.459158 0.062981 0.709012 59 56 41
0.461807 0.064114 0.718333 23 22 20
0.458439 0.065222 0.718689 177 166 120
0.469152 0.062831 0.689788 24 23 18
0.455492 0.061024 0.721845 179 169 116
0.456924 0.061957 0.728223 183 172 127
0.456619 0.061360 0.733177 188 177 111
0.456641 0.061964 0.724684 185 174 128
0.455475 0.059200 0.719287 119 111 62
0.458951 0.061273 0.730757 141 129 55
0.460419 0.062229 0.733635 87 79 42
0.458568 0.061631 0.722039 137 128 53
0.459476 0.062147 0.726260 170 154 77
0.457115 0.060534 0.742929 181 169 119
0.456769 0.060778 0.739289 180 168 92
0.457080 0.060508 0.746213 164 151 107
0.460419 0.061604 0.742353 65 60 41
0.460727 0.061753 0.746433 155 142 64
0.459786 0.060696 0.749240 153 144 65
0.460352 0.062203 0.737122 147 134 64
0.457410 0.061926 0.736142 189 176 108
0.463689 0.065520 0.730499 169 158 79
0.460725 0.063855 0.723696 27 26 22
0.463231 0.065753 0.722089 19 18 16
0.459006 0.064473 0.728765 186 176 127
0.463760 0.065461 0.734017 154 140 75
0.462881 0.065296 0.726094 22 21 17
0.459911 0.065720 0.732316 175 161 122
0.458643 0.065474 0.721786 194 183 119
0.458967 0.065614 0.725835 163 148 89
0.461349 0.063423 0.730574 146 136 49
0.466433 0.065586 0.720552 31 29 34
0.464366 0.065352 0.741471 71 66 46
0.463267 0.063794 0.749423 154 145 66
0.461304 0.065138 0.746942 178 166 114
0.464316 0.065586 0.737765 151 144 63
0.463908 0.064661 0.745351 114 104 51
0.460075 0.065357 0.735434 186 176 104
0.462028 0.063438 0.739896 120 111 54
0.460879 0.065347 0.742071 184 172 122
0.465507 0.065885 0.748382 111 107 44
0.458876 0.063316 0.740039 178 166 92
0.459995 0.063888 0.749596 166 151 96
0.457094 0.067763 0.691626 192 180 120
0.456919 0.066681 0.697338 195 183 125
0.465171 0.069052 0.702037 35 35 27
0.464913 0.069026 0.696550 0 0 0
0.458859 0.069047 0.698545 208 196 146
0.464280 0.068884 0.693452 11 11 9
0.463956 0.068800 0.690188 23 23 15
0.458512 0.068185 0.702322 176 164 124
0.458134 0.068195 0.694830 180 171 130
0.467303 0.069001 0.691928 25 25 25
0.466770 0.067326 0.698377 74 68 56
0.466531 0.069029 0.716672 26 26 26
0.459972 0.067995 0.712818 177 167 118
0.458256 0.066554 0.709579 193 182 137
0.463597 0.066960 0.710214 20 20 20
0.466420 0.068719 0.710181 19 18 16
0.463114 0.067004 0.704152 23 22 20
0.460355 0.069260 0.707364 174 162 110
0.465529 0.068785 0.706925 17 16 12
0.460757 0.068134 0.718457 201 188 153
0.463972 0.066752 0.717151 21 20 18
0.464339 0.067220 0.714078 12 12 10
0.459264 0.066638 0.715808 185 174 129
0.466778 0.069133 0.713287 21 21 19
0.461041 0.069387 0.715482 189 180 115
0.461402 0.071590 0.701733 187 178 137
0.462060 0.072714 0.695063 140 129 73
0.465532 0.072813 0.698044 106 98 59
0.458992 0.070160 0.691008 196 186 151
0.465432 0.072904 0.694381 131 118 66
0.462468 0.072432 0.691033 118 105 50
0.461319 0.071931 0.698161 180 168 120
0.466423 0.073196 0.702133 131 121 62
0.463756 0.070200 0.699273 20 20 12
0.459778 0.070706 0.694064 193 183 148
0.467286 0.070033 0.699955 99 95 66
0.463935 0.072571 0.717007 185 174 129
0.461232 0.070452 0.710628 195 184 122
0.462386 0.072063 0.707856 182 171 126
0.462768 0.072754 0.704831 180 167 115
0.463731 0.073191 0.712385 158 143 78
0.460466 0.069817 0.704131 176 165 119
0.467186 0.070526 0.703911 94 87 61
0.466741 0.073196 0.707539 100 87 32
0.471582 0.069026 0.691151 34 30 21
0.469210 0.066119 0.689813 13 10 5
0.469375 0.069542 0.696405 44 41 26
0.475821 0.069542 0.689547 35 34 30
0.472174 0.069349 0.698302 77 75 63
0.470434 0.068350 0.700783 91 79 65
0.472308 0.069184 0.694688 56 53 44
0.470126 0.068965 0.710884 94 87 68
0.469493 0.068724 0.718295 68 65 56
0.469285 0.067875 0.708102 53 49 40
0.470484 0.069349 0.714323 88 81 63
0.468693 0.071298 0.693526 27 25 26
0.469376 0.069743 0.689031 23 23 23
0.473723 0.071321 0.692477 22 21 17
0.476904 0.071288 0.692593 23 21 22
0.472232 0.071207 0.701803 87 79 56
0.475230 0.070358 0.698202 21 20 15
0.471358 0.072714 0.690278 38 37 35
0.475080 0.071862 0.695283 36 36 28
0.474830 0.073095 0.689396 44 43 38
0.471050 0.072104 0.695932 30 26 27
0.476646 0.072404 0.700978 99 91 55
0.477462 0.072538 0.697781 125 116 59
0.481808 0.073087 0.689287 30 28 29
0.478386 0.072579 0.690212 26 25 23
0.479610 0.072970 0.694692 94 90 63
0.479552 0.073171 0.700271 99 91 52
0.481958 0.073120 0.692385 21 20 16
0.485198 0.073212 0.692535 29 28 26
0.470018 0.070724 0.706467 103 99 70
0.476619 0.072523 0.706597 132 120 68
0.476679 0.072546 0.710871 93 87 53
0.477287 0.072864 0.714410 121 113 64
0.471525 0.071405 0.716825 86 80 54
0.472980 0.071557 0.705906 133 122 76
0.473939 0.071954 0.713427 88 82 50
0.476246 0.072421 0.717774 26 25 23
0.473257 0.071522 0.709489 78 72 46
0.475322 0.072071 0.703743 99 93 59
0.468277 0.071598 0.715917 68 64 35
0.467977 0.071207 0.711287 98 91 63
0.479277 0.073153 0.708273 79 76 45
0.479043 0.073156 0.704682 160 146 83
0.480143 0.072864 0.716875 26 25 23
0.467286 0.069042 0.725586 20 19 17
0.466065 0.067484 0.733360 141 133 61
0.461066 0.068429 0.722286 193 183 114
0.467195 0.068742 0.729649 137 129 54
0.465754 0.068053 0.722288 24 22 23
0.462511 0.069044 0.727482 177 165 115
0.463361 0.069344 0.733786 183 173 120
0.465155 0.066953 0.727776 19 18 14
0.461815 0.068213 0.731121 190 176 111
0.462590 0.067888 0.740705 192 181 119
0.464543 0.068953 0.748483 172 162 111
0.467156 0.067791 0.741903 93 86 42
0.467164 0.068282 0.736133 136 127 60
0.463685 0.069110 0.737316 176 165 111
0.467147 0.067542 0.746000 149 141 60
0.463486 0.068028 0.745252 178 168 119
0.461166 0.066340 0.738182 198 184 123
0.464468 0.069469 0.742671 172 161 107
0.463111 0.070434 0.723444 176 166 117
0.465142 0.072399 0.729997 188 176 134
0.464792 0.072922 0.722303 185 173 131
0.464559 0.072073 0.725867 188 177 132
0.465242 0.071890 0.733711 173 161 109
0.462763 0.070500 0.719540 195 182 140
0.467147 0.069954 0.720043 47 44 35
0.466341 0.072988 0.736784 181 171 122
0.466474 0.071364 0.748175 176 164 112
0.467066 0.072790 0.744003 182 170 118
0.466037 0.072343 0.741088 194 179 120
0.465263 0.070653 0.745418 189 175 112
0.468360 0.069502 0.732772 91 84 55
0.467788 0.067850 0.749648 137 128 61
0.468504 0.069387 0.738796 147 132 63
0.469246 0.069514 0.744726 128 118 56
0.475788 0.072846 0.728732 126 116 55
0.470342 0.071931 0.729515 85 81 44
0.473014 0.072246 0.733302 107 102 64
0.469351 0.071463 0.722437 10 9 4
0.472174 0.071763 0.725693 33 32 30
0.477112 0.072988 0.721563 28 27 25
0.476178 0.073069 0.733702 126 113 61
0.476121 0.072970 0.725501 29 28 24
0.473382 0.072155 0.719614 26 25 23
0.474006 0.071504 0.722962 25 24 22
0.469104 0.071878 0.726673 49 46 39
0.469537 0.072917 0.733351 86 80 54
0.479235 0.072820 0.724427 24 23 21
0.481500 0.073153 0.721863 27 26 24
0.471598 0.071588 0.744061 84 80 51
0.471267 0.071174 0.748596 141 132 93
0.475271 0.073128 0.743678 95 88 60
0.474105 0.072630 0.737482 93 87 55
0.470874 0.071430 0.737341 66 61 41
0.472015 0.072770 0.740130 82 76 42
0.474996 0.073179 0.747949 95 88 60
0.469829 0.070345 0.741578 80 75 37
0.476320 0.073212 0.739647 82 78 51
0.464666 0.074180 0.645673 160 149 87
0.464275 0.073982 0.636231 159 149 88
0.466290 0.074714 0.650006 167 158 93
0.467039 0.075079 0.637130 160 150 91
0.465082 0.074340 0.631584 160 151 96
0.463980 0.074271 0.642511 145 131 68
0.464816 0.074190 0.628445 153 144 87
0.466758 0.075087 0.654789 181 167 140
0.467014 0.075273 0.642776 163 151 93
0.462969 0.073654 0.648861 173 162 132
0.467131 0.075097 0.633758 155 144 88
0.465091 0.074348 0.639536 153 141 81
0.467170 0.075339 0.647099 147 134 66
0.470237 0.076363 0.637996 152 140 82
0.471328 0.076688 0.630477 150 140 87
0.467555 0.075196 0.627346 155 146 91
0.471411 0.076787 0.634649 148 135 80
0.471118 0.076510 0.626963 163 148 89
0.467880 0.075346 0.630627 163 153 100
0.487634 0.073476 0.637580 84 75 46
0.470542 0.076597 0.653274 152 137 72
0.471261 0.076787 0.643750 158 149 84
0.471869 0.076820 0.650248 156 147 82
0.470470 0.076370 0.646814 162 150 90
0.472002 0.076876 0.656143 157 145 87
0.469487 0.076205 0.641119 162 152 93
0.487162 0.073994 0.653909 124 118 66
0.487171 0.073877 0.650087 132 122 63
0.487559 0.073560 0.641935 82 77 48
0.487584 0.073761 0.645216 104 95 52
0.473718 0.077661 0.636988 152 141 79
0.474750 0.078035 0.631609 161 150 94
0.476674 0.078868 0.638387 139 128 64
0.475208 0.078195 0.627054 152 143 86
0.477373 0.079128 0.633416 149 137 79
0.474034 0.077994 0.640153 160 148 90
0.477398 0.079077 0.630227 149 140 81
0.479205 0.079793 0.636356 146 133 80
0.480521 0.080185 0.630901 150 138 80
0.479471 0.079819 0.627437 132 120 60
0.480162 0.080495 0.640336 139 120 62
0.481603 0.080518 0.634066 134 124 63
0.475549 0.078152 0.655352 159 149 88
0.474700 0.077827 0.651289 166 156 95
0.477281 0.078802 0.648630 154 142 82
0.475375 0.078203 0.645432 154 142 82
0.477398 0.078785 0.652513 153 142 80
0.476607 0.078909 0.641818 155 146 81
0.474184 0.077694 0.648246 159 149 88
0.481312 0.080210 0.647106 149 137 77
0.479563 0.079575 0.656085 149 137 77
0.481220 0.080091 0.650514 154 142 84
0.480433 0.080017 0.643598 157 142 77
0.481636 0.080233 0.653795 144 132 72
0.478314 0.079234 0.645707 155 144 82
0.465159 0.074505 0.659786 176 165 137
0.466240 0.074721 0.663329 165 155 93
0.465790 0.074863 0.686495 155 145 76
0.465940 0.074813 0.669266 170 158 98
0.466423 0.075369 0.675795 172 159 104
0.467098 0.075362 0.679584 162 151 85
0.464108 0.074137 0.671723 176 166 105
0.465532 0.074696 0.682331 175 166 101
0.463917 0.073964 0.666127 171 160 98
0.467023 0.075303 0.672406 160 149 87
0.463550 0.074012 0.677593 171 160 98
0.467147 0.075161 0.666244 167 157 98
0.470570 0.076528 0.667151 162 151 89
0.469179 0.075829 0.659799 157 147 85
0.471602 0.076820 0.663737 153 143 82
0.470245 0.076553 0.671615 157 146 82
0.486863 0.073911 0.658239 120 113 58
0.487021 0.074170 0.671612 100 93 65
0.486754 0.074027 0.664485 116 109 57
0.485672 0.073844 0.668482 102 93 50
0.486121 0.073819 0.661345 99 93 43
0.470833 0.076802 0.687206 97 83 54
0.468830 0.076137 0.684014 153 142 78
0.469418 0.076716 0.675430 139 123 61
0.469879 0.076470 0.678593 157 146 80
0.470828 0.076861 0.681682 172 161 97
0.485539 0.074127 0.679115 132 121 67
0.486155 0.074060 0.675409 114 107 55
