ply
format ascii 1.0
element vertex 1296
property float x
property float y
property float z
property uchar red
property uchar green
property uchar blue
end_header
0.335115 0.955208 0.557920 111 77 46
0.317089 0.955157 0.558601 109 73 42
0.248096 0.955548 0.560270 93 62 36
0.201603 0.951932 0.567047 126 88 52
0.195475 0.952528 0.566400 133 92 55
0.190166 0.950460 0.569567 137 94 54
0.184448 0.949725 0.570861 136 92 53
0.178809 0.948724 0.572496 142 95 54
0.171207 0.944331 0.579171 151 103 61
0.165414 0.943816 0.580124 151 103 61
0.151829 0.939433 0.586973 167 119 72
0.143744 0.936518 0.591502 139 99 61
0.872209 0.888596 0.632753 141 97 56
0.852144 0.895292 0.623612 120 81 47
0.841451 0.897032 0.621412 121 82 48
0.833731 0.899259 0.618399 124 82 47
0.811513 0.904425 0.611564 115 77 43
0.793199 0.908525 0.606152 107 72 41
0.764259 0.914727 0.598017 113 77 43
0.730105 0.919150 0.592646 113 76 45
0.698940 0.924327 0.586080 123 84 48
0.692396 0.924780 0.585624 124 82 47
0.685771 0.925410 0.584919 114 78 47
0.679154 0.926036 0.584214 114 76 44
0.672632 0.926489 0.583761 117 80 45
0.665794 0.927586 0.582379 115 78 45
0.658709 0.929200 0.580261 117 79 46
0.652077 0.929925 0.579409 118 79 46
0.635878 0.931019 0.578319 111 76 44
0.619277 0.933031 0.575901 115 77 43
0.613069 0.932963 0.576208 116 77 45
0.606444 0.933780 0.575220 112 75 43
0.599733 0.934792 0.573960 116 77 45
0.592756 0.936389 0.571849 116 78 45
0.586536 0.936399 0.572053 112 77 45
0.580292 0.936464 0.572155 113 77 44
0.573672 0.937356 0.571066 114 77 45
0.567060 0.938245 0.569976 114 77 46
0.560604 0.938814 0.569363 117 78 45
0.553927 0.939880 0.568001 118 81 46
0.547356 0.940734 0.566979 120 81 48
0.541768 0.939427 0.569056 117 79 46
0.518481 0.943241 0.564254 113 78 47
0.511960 0.944075 0.563233 122 84 50
0.505794 0.944116 0.563369 115 80 48
0.499480 0.944508 0.562995 111 75 43
0.493026 0.945240 0.562143 113 76 45
0.477313 0.946149 0.561326 112 78 46
0.461900 0.946428 0.561428 114 77 45
0.433233 0.949371 0.558057 123 79 47
0.426789 0.950253 0.556967 122 82 47
0.420575 0.950586 0.556694 116 78 45
0.408702 0.949892 0.558091 119 81 47
0.402491 0.950246 0.557750 122 83 48
0.387263 0.950430 0.557989 114 77 44
0.380607 0.951986 0.555945 107 72 42
0.368423 0.952228 0.555979 118 79 45
0.362230 0.952633 0.555571 115 79 46
0.356042 0.953038 0.555196 115 79 47
0.349960 0.953178 0.555196 115 78 45
0.344021 0.952940 0.555741 108 74 44
0.328964 0.952953 0.556184 105 72 42
0.323010 0.952786 0.556626 102 69 40
0.310975 0.952834 0.556967 106 71 41
0.304963 0.952858 0.557137 105 71 41
0.298955 0.952882 0.557274 111 74 42
0.292977 0.952827 0.557546 118 76 44
0.286994 0.952800 0.557784 111 74 43
0.281026 0.952742 0.558057 110 74 44
0.274964 0.952963 0.557955 112 75 44
0.269003 0.952906 0.558227 108 73 43
0.262969 0.953072 0.558193 104 71 40
0.256993 0.953076 0.558363 101 68 41
0.242322 0.952323 0.559964 96 63 35
0.236529 0.951799 0.560917 101 67 37
0.230776 0.951155 0.562041 114 76 44
0.224753 0.951356 0.561939 112 74 42
0.218894 0.951053 0.562586 112 73 41
0.213056 0.950695 0.563301 120 81 48
0.206938 0.951234 0.562688 122 84 52
0.175289 0.947889 0.568614 140 94 54
0.173086 0.945322 0.572462 142 97 57
0.167366 0.944589 0.573722 147 100 59
0.159135 0.942284 0.577366 146 99 58
0.146038 0.936195 0.586680 156 112 69
0.138167 0.932500 0.592340 148 105 65
0.860419 0.889526 0.626272 125 86 51
0.837473 0.895727 0.617959 128 87 51
0.826678 0.897706 0.615419 109 72 41
0.819169 0.899613 0.612882 116 79 44
0.807553 0.903155 0.608090 103 70 39
0.800282 0.904694 0.606071 112 76 44
0.785730 0.907861 0.601919 94 63 37
0.777738 0.910804 0.597887 96 65 38
0.771594 0.910351 0.598745 111 75 43
0.757560 0.912724 0.595731 116 77 45
0.750477 0.914069 0.593998 101 69 41
0.743461 0.915306 0.592425 107 73 43
0.736623 0.916222 0.591304 112 74 43
0.726330 0.917700 0.589479 113 76 44
0.719415 0.918810 0.588083 118 79 44
0.712352 0.920223 0.586247 113 75 45
0.705755 0.920754 0.585689 118 79 45
0.645541 0.927868 0.577264 116 79 46
0.629192 0.929309 0.575697 118 80 45
0.534972 0.938211 0.565753 115 79 46
0.528227 0.939505 0.564084 119 81 47
0.486497 0.943568 0.559521 121 82 48
0.470909 0.944222 0.559078 116 80 47
0.455261 0.945097 0.558295 118 79 46
0.448856 0.945826 0.557444 111 75 44
0.442472 0.946524 0.556626 115 76 44
0.414691 0.947498 0.556116 115 77 46
0.395919 0.948935 0.554651 114 79 47
0.374558 0.949381 0.554685 118 79 45
0.337839 0.950753 0.553902 109 75 45
0.316867 0.950535 0.554890 105 71 42
0.250933 0.950709 0.556831 94 63 37
0.200944 0.948734 0.561360 120 82 48
0.195294 0.947787 0.562926 133 91 53
0.189688 0.946691 0.564698 126 84 49
0.183933 0.946084 0.565787 130 85 48
0.169426 0.944974 0.567864 141 94 54
0.153810 0.937472 0.579341 147 101 60
0.148288 0.936018 0.581653 152 108 64
0.140154 0.933283 0.585914 157 112 67
0.867983 0.885034 0.627079 129 89 51
0.854960 0.890790 0.619117 122 84 50
0.848470 0.890813 0.619294 115 79 45
0.815239 0.898271 0.609507 113 76 44
0.792626 0.904350 0.601385 96 66 38
0.781647 0.906877 0.598057 99 68 41
0.767113 0.910143 0.593773 114 76 44
0.699217 0.918585 0.583679 119 81 45
0.692227 0.919913 0.581970 117 79 45
0.685396 0.920952 0.580669 117 80 46
0.678928 0.921286 0.580397 113 77 46
0.672374 0.921807 0.579852 115 77 44
0.665425 0.923131 0.578149 115 78 44
0.658540 0.924347 0.576617 112 78 46
0.652504 0.923864 0.577502 116 78 45
0.641815 0.926486 0.574028 115 78 45
0.635703 0.926186 0.574675 113 77 46
0.622474 0.927685 0.572939 116 76 42
0.615669 0.928856 0.571440 112 74 42
0.608999 0.929765 0.570316 116 77 45
0.602447 0.930443 0.569567 114 77 44
0.595606 0.931751 0.567864 115 78 45
0.588742 0.933130 0.566094 113 76 44
0.582518 0.933161 0.566264 110 75 44
0.576344 0.933093 0.566536 113 76 45
0.570015 0.933365 0.566366 118 78 45
0.563504 0.934053 0.565583 118 78 45
0.557010 0.934713 0.564834 115 78 46
0.550503 0.935422 0.564016 121 82 49
0.544138 0.935831 0.563608 117 80 46
0.521591 0.937976 0.561224 112 76 45
0.515166 0.938589 0.560543 115 80 47
0.508748 0.939198 0.559862 120 82 48
0.502458 0.939532 0.559589 119 83 48
0.496000 0.940264 0.558738 120 81 49
0.480144 0.941497 0.557444 119 83 48
0.464562 0.942175 0.557001 114 76 45
0.436199 0.944361 0.554753 119 81 45
0.429756 0.945233 0.553664 119 79 45
0.423389 0.945941 0.552846 115 78 45
0.408805 0.944419 0.555537 120 80 46
0.402117 0.945986 0.553493 116 78 45
0.389979 0.946020 0.553834 114 78 45
0.383785 0.946377 0.553527 113 77 46
0.368138 0.947756 0.552029 117 79 46
0.361872 0.948356 0.551382 111 75 44
0.355614 0.948955 0.550701 111 76 45
0.349537 0.949085 0.550701 109 74 44
0.343860 0.948145 0.552267 101 69 40
0.331624 0.948672 0.551893 111 75 44
0.325604 0.948686 0.552097 108 74 43
0.310724 0.948291 0.553153 113 76 44
0.304754 0.948196 0.553493 110 74 44
0.298717 0.948301 0.553527 111 73 42
0.292685 0.948407 0.553595 116 77 44
0.286657 0.948513 0.553630 114 76 45
0.280633 0.948618 0.553664 116 78 45
0.274669 0.948560 0.553970 115 77 45
0.269116 0.947297 0.555979 112 74 44
0.262968 0.947797 0.555468 108 72 42
0.256705 0.948662 0.554413 105 71 41
0.245068 0.947753 0.556116 92 64 37
0.239202 0.947453 0.556763 82 57 33
0.233271 0.947358 0.557103 84 58 34
0.227320 0.947334 0.557308 93 63 36
0.221379 0.947293 0.557580 97 64 33
0.215399 0.947385 0.557648 105 68 37
0.209393 0.947569 0.557580 108 71 39
0.177811 0.944027 0.563778 126 83 47
0.163867 0.941024 0.568648 132 87 49
0.158189 0.940155 0.570078 140 94 54
0.152818 0.938218 0.573109 143 97 56
0.142435 0.933011 0.581044 153 107 62
0.134768 0.928594 0.587722 143 100 60
0.879017 0.880185 0.628285 122 84 50
0.874651 0.882115 0.625621 129 89 51
0.859735 0.885470 0.621225 122 83 49
0.844277 0.889884 0.615310 118 76 43
0.837797 0.889908 0.615487 119 79 45
0.830325 0.891716 0.613103 117 78 44
0.822510 0.894164 0.609796 117 79 45
0.811118 0.897287 0.605621 113 75 42
0.804294 0.898013 0.604790 100 68 39
0.796890 0.899804 0.602427 105 70 40
0.785662 0.902767 0.598483 106 70 41
0.774203 0.906216 0.593842 105 71 40
0.760336 0.908280 0.591291 115 77 44
0.753600 0.908968 0.590511 115 77 46
0.746649 0.910078 0.589122 113 76 44
0.739814 0.910987 0.588025 116 77 44
0.732602 0.912632 0.585869 117 76 43
0.725857 0.913402 0.584970 116 77 45
0.718948 0.914505 0.583588 117 77 44
0.712123 0.915466 0.582420 113 77 44
0.706090 0.914900 0.583434 119 81 47
0.628880 0.924759 0.571645 111 75 42
0.537591 0.934063 0.561122 111 77 46
0.531066 0.934860 0.560168 112 76 45
0.489556 0.938388 0.556422 124 83 48
0.473647 0.939788 0.554890 117 79 45
0.458061 0.940506 0.554379 123 84 49
0.451654 0.941238 0.553527 112 77 44
0.445393 0.941630 0.553153 118 80 47
0.417233 0.943534 0.551314 114 78 45
0.395557 0.944647 0.550428 115 78 47
0.377190 0.945182 0.550258 114 77 44
0.337615 0.946132 0.550190 102 69 41
0.319588 0.946081 0.550871 108 73 42
0.250702 0.946122 0.553119 101 68 41
0.203555 0.944572 0.556967 102 66 37
0.197977 0.943391 0.558840 112 73 40
0.192125 0.943101 0.559487 122 79 43
0.186334 0.942618 0.560372 126 82 46
0.171848 0.941453 0.562552 127 84 49
0.152001 0.938357 0.567728 142 95 55
0.147261 0.934209 0.573926 141 95 56
0.136663 0.929718 0.580805 145 98 56
0.131173 0.928117 0.583332 148 105 63
0.885909 0.876905 0.627331 116 79 46
0.870122 0.881716 0.620861 127 86 49
0.865855 0.883495 0.618415 125 85 49
0.855434 0.884707 0.616995 120 80 47
0.818062 0.893756 0.605083 109 73 42
0.793066 0.898326 0.599270 101 69 39
0.781770 0.901432 0.595129 110 74 42
0.770290 0.904953 0.590395 112 75 42
0.699227 0.913365 0.580533 119 79 45
0.691880 0.915398 0.577809 117 78 44
0.684550 0.917427 0.575118 116 78 46
0.678138 0.917659 0.574982 118 80 47
0.671998 0.917359 0.575629 115 78 46
0.665333 0.918119 0.574744 115 77 45
0.658677 0.918875 0.573858 114 78 45
0.652726 0.918214 0.575016 115 78 45
0.645158 0.920860 0.571406 114 78 45
0.638292 0.922103 0.569840 115 78 45
0.622190 0.923080 0.568954 115 76 45
0.615165 0.924718 0.566809 111 75 42
0.608165 0.926329 0.564698 115 77 44
0.602081 0.926026 0.565344 112 74 44
0.595837 0.926070 0.565481 115 78 46
0.589085 0.927211 0.564050 116 79 47
0.584871 0.929585 0.560747 115 78 44
0.578910 0.929057 0.561700 116 78 44
0.572402 0.929724 0.560951 118 78 44
0.566498 0.929088 0.562075 111 75 43
0.560200 0.929312 0.561973 110 74 44
0.553170 0.931168 0.559521 118 80 46
0.547126 0.930862 0.560134 119 81 48
0.524446 0.933293 0.557375 114 78 46
0.518107 0.933705 0.557001 112 76 45
0.511767 0.934135 0.556592 114 77 45
0.505555 0.934281 0.556558 117 80 46
0.499136 0.934918 0.555843 122 81 46
0.483156 0.936423 0.554208 121 81 46
0.466975 0.938511 0.551723 121 81 47
0.438865 0.940087 0.550360 115 78 44
0.432726 0.940213 0.550394 113 76 44
0.426474 0.940625 0.549986 115 77 45
0.411138 0.940983 0.549986 117 78 45
0.404754 0.941780 0.549032 114 78 45
0.389350 0.942427 0.548624 113 77 44
0.383111 0.942907 0.548147 115 78 46
0.370788 0.943510 0.547670 113 77 45
0.364628 0.943830 0.547432 107 73 43
0.358402 0.944341 0.546887 100 67 39
0.352159 0.944910 0.546274 108 73 42
0.346387 0.944225 0.547466 105 70 41
0.331176 0.944668 0.547329 109 73 42
0.325023 0.945053 0.546955 108 71 41
0.313577 0.943462 0.549679 119 78 44
0.307586 0.943421 0.549917 116 77 44
0.301492 0.943687 0.549747 110 73 42
0.295449 0.943820 0.549747 110 72 42
0.289384 0.944027 0.549645 108 73 42
0.283401 0.944010 0.549884 109 72 41
0.277375 0.944130 0.549917 110 74 43
0.271664 0.943333 0.551280 108 72 42
0.265855 0.942822 0.552199 108 72 42
0.259588 0.943690 0.551143 108 72 42
0.244908 0.942951 0.552710 94 65 39
0.239150 0.942315 0.553834 92 63 39
0.233220 0.942216 0.554175 97 66 40
0.227195 0.942423 0.554106 89 61 37
0.221359 0.942049 0.554821 98 66 37
0.215320 0.942321 0.554651 93 61 36
0.209261 0.942679 0.554311 88 59 34
0.180472 0.939699 0.559623 115 74 41
0.165890 0.938865 0.561326 134 88 51
0.160178 0.938129 0.562586 135 90 52
0.141415 0.931206 0.573313 136 91 51
0.125079 0.925975 0.581456 158 113 69
0.123138 0.922236 0.586956 146 105 65
0.882024 0.875357 0.624212 117 81 49
0.874263 0.877533 0.621310 127 85 48
0.861836 0.882228 0.614911 117 79 44
0.851385 0.883515 0.613393 108 73 41
0.843722 0.885620 0.610593 96 64 37
0.836887 0.886281 0.609861 104 70 40
0.829661 0.887660 0.608097 112 75 43
0.822046 0.889758 0.605311 108 72 41
0.811711 0.890980 0.603877 107 71 40
0.805625 0.890354 0.604991 107 71 40
0.799802 0.895121 0.598272 107 71 42
0.789109 0.897090 0.595766 102 67 38
0.777884 0.900097 0.591781 105 71 41
0.763854 0.902453 0.588829 116 79 45
0.757070 0.903216 0.587947 117 77 44
0.750361 0.903863 0.587231 116 77 44
0.743414 0.904977 0.585849 117 76 43
0.736657 0.905740 0.584970 112 73 42
0.728836 0.908563 0.581132 116 74 42
0.722142 0.909247 0.580363 115 75 43
0.715432 0.909983 0.579511 117 77 46
0.708673 0.910824 0.578524 120 81 48
0.631566 0.920475 0.567081 112 74 42
0.540322 0.929663 0.556831 119 81 48
0.533821 0.930405 0.555979 117 80 48
0.492443 0.933610 0.552710 119 78 44
0.476453 0.935190 0.550939 120 80 46
0.460650 0.936430 0.549679 110 76 44
0.454389 0.936804 0.549373 116 79 46
0.448037 0.937414 0.548692 114 78 45
0.420314 0.938221 0.548453 113 77 45
0.398304 0.940159 0.546376 119 80 47
0.376569 0.941586 0.545048 114 77 44
0.340342 0.941671 0.546171 101 68 39
0.319147 0.942066 0.546308 109 73 43
0.253604 0.941085 0.549951 106 69 38
0.203309 0.940043 0.553187 91 61 35
0.197594 0.939308 0.554447 95 62 35
0.191879 0.938572 0.555707 105 68 36
0.186063 0.938170 0.556490 114 73 40
0.174435 0.937370 0.558057 114 74 41
0.154563 0.934370 0.563063 140 93 53
0.149205 0.932391 0.566128 137 91 52
0.143754 0.930715 0.568750 131 87 50
0.135569 0.928202 0.572666 136 92 53
0.130499 0.925113 0.577332 151 105 61
0.124276 0.926172 0.576003 162 117 69
0.119500 0.921957 0.582290 150 106 66
0.114589 0.918176 0.587940 136 97 59
0.894127 0.868711 0.627948 118 78 43
0.886005 0.871473 0.624219 105 73 43
0.863733 0.881960 0.609776 109 74 43
0.804137 0.890452 0.599464 106 71 39
0.785271 0.895656 0.592561 104 70 39
0.771073 0.898278 0.589237 106 71 41
0.701931 0.909050 0.575970 124 82 48
0.695204 0.909864 0.575016 120 80 46
0.688107 0.911423 0.572973 119 79 46
0.681249 0.912534 0.571611 117 79 45
0.674551 0.913344 0.570657 115 76 43
0.667949 0.913978 0.569976 111 76 45
0.661412 0.914495 0.569431 116 79 46
0.654694 0.915391 0.568341 115 77 45
0.647899 0.916467 0.567047 113 76 43
0.641249 0.917260 0.566094 115 77 45
0.624902 0.918742 0.564493 113 73 41
0.618399 0.919287 0.563948 111 74 43
0.611775 0.920097 0.562995 114 75 43
0.605443 0.920308 0.562892 110 74 42
0.599029 0.920707 0.562552 109 73 43
0.592892 0.920526 0.562995 107 73 43
0.583656 0.927007 0.553936 110 74 42
0.578444 0.924878 0.557205 111 75 43
0.571831 0.925774 0.556116 111 74 42
0.566234 0.924470 0.558193 109 74 44
0.559990 0.924582 0.558227 115 76 44
0.553787 0.924613 0.558397 116 78 45
0.546561 0.926925 0.555298 117 81 47
0.527496 0.928172 0.554140 113 79 47
0.521176 0.928536 0.553834 114 79 47
0.514630 0.929425 0.552744 118 79 45
0.508256 0.929942 0.552233 117 80 48
0.501832 0.930589 0.551518 120 81 47
0.485837 0.932125 0.549815 120 78 45
0.469900 0.933627 0.548181 120 81 47
0.441831 0.935081 0.547023 114 78 45
0.435443 0.935813 0.546206 115 78 45
0.429061 0.936546 0.545354 109 74 42
0.413830 0.936641 0.545729 116 78 45
0.407413 0.937520 0.544673 113 77 46
0.392507 0.936876 0.546103 113 77 46
0.386216 0.937482 0.545456 111 76 43
0.370774 0.938323 0.544775 117 79 46
0.364736 0.938316 0.544980 118 81 48
0.358496 0.938861 0.544401 98 65 39
0.352139 0.939737 0.543345 103 70 41
0.346039 0.939934 0.543277 104 70 40
0.334000 0.939934 0.543685 105 71 41
0.327733 0.940632 0.542902 103 68 39
0.313265 0.939090 0.545627 110 73 43
0.307326 0.938909 0.546070 113 75 42
0.301250 0.939120 0.545967 113 75 44
0.295080 0.939621 0.545456 107 71 41
0.289087 0.939624 0.545661 106 72 41
0.283158 0.939454 0.546103 107 72 42
0.277148 0.939525 0.546206 108 70 42
0.271309 0.939110 0.547023 104 69 41
0.265653 0.938146 0.548624 102 68 40
0.259847 0.937632 0.549543 100 66 38
0.247735 0.938136 0.549236 101 68 39
0.241722 0.938279 0.549236 109 75 44
0.236041 0.937411 0.550701 102 70 43
0.230112 0.937312 0.551041 86 61 36
0.224280 0.936913 0.551825 90 62 36
0.218485 0.936406 0.552744 88 60 35
0.212386 0.936876 0.552267 88 59 34
0.180059 0.935728 0.555060 109 69 36
0.168304 0.935374 0.555979 117 76 41
0.162154 0.936144 0.555060 122 81 45
0.156882 0.933906 0.558500 123 83 47
0.140203 0.930096 0.564595 135 89 52
0.109051 0.913947 0.589067 123 89 55
0.890112 0.867374 0.624525 117 78 45
0.878656 0.870286 0.620701 111 74 41
0.870762 0.872707 0.617462 103 69 39
0.862231 0.876282 0.612578 95 66 39
0.855039 0.877530 0.611015 100 67 39
0.847812 0.878859 0.609336 96 66 39
0.840851 0.879732 0.608311 103 68 39
0.833615 0.881119 0.606547 105 71 40
0.825990 0.883223 0.603762 108 71 40
0.818678 0.884782 0.601749 103 68 39
0.811483 0.886161 0.599999 101 68 38
0.800299 0.888978 0.596307 101 69 39
0.792671 0.891205 0.593341 99 67 38
0.781150 0.894750 0.588600 103 71 40
0.767143 0.897049 0.585753 112 75 43
0.760295 0.897934 0.584704 114 77 43
0.753630 0.898486 0.584126 108 71 40
0.746254 0.900407 0.581599 109 72 40
0.740151 0.899923 0.582508 110 72 40
0.733242 0.900992 0.581194 111 72 40
0.725583 0.903519 0.577809 112 73 40
0.719886 0.902283 0.579784 114 75 42
0.712315 0.904684 0.576548 117 76 44
0.634564 0.915547 0.563471 118 78 45
0.588767 0.920104 0.558465 108 73 43
0.540001 0.925188 0.552744 120 82 48
0.533678 0.925536 0.552472 118 81 48
0.495742 0.927875 0.550394 120 79 45
0.479528 0.929963 0.547908 121 81 47
0.463932 0.930681 0.547397 117 79 45
0.457597 0.931226 0.546853 118 80 46
0.451240 0.931839 0.546171 114 78 45
0.422967 0.933978 0.544060 111 76 44
0.401170 0.935367 0.542800 117 79 47
0.379755 0.935939 0.542698 109 72 42
0.340021 0.937308 0.542085 105 70 41
0.321839 0.937690 0.542153 99 67 40
0.253733 0.935408 0.547806 102 67 38
0.206303 0.934645 0.550565 91 61 36
0.200437 0.934393 0.551109 101 67 37
0.194619 0.933988 0.551893 103 66 36
0.188839 0.933464 0.552846 101 65 36
0.174487 0.931839 0.555707 104 67 36
0.150703 0.932115 0.556149 121 81 46
0.145680 0.928968 0.560883 126 82 47
0.134391 0.927003 0.564118 138 93 53
0.132180 0.924310 0.568069 139 93 52
0.126830 0.922229 0.571270 147 100 58
0.121014 0.921831 0.572053 144 102 62
0.116223 0.917652 0.578251 129 93 58
0.111199 0.914277 0.583322 121 86 53
0.904469 0.862508 0.625584 120 80 45
0.885678 0.866769 0.620067 98 68 40
0.866444 0.871954 0.613229 97 66 38
0.807658 0.884650 0.596890 102 68 38
0.788771 0.889873 0.589987 97 65 37
0.776856 0.894178 0.584173 107 71 39
0.742218 0.899433 0.577774 110 74 41
0.734607 0.901844 0.574539 111 73 39
0.708408 0.903536 0.573007 114 76 44
0.701519 0.904653 0.571611 119 79 45
0.694485 0.906077 0.569806 116 77 45
0.687794 0.906843 0.568920 115 78 44
0.681111 0.907609 0.568035 118 78 45
0.674627 0.907994 0.567694 117 77 45
0.668074 0.908529 0.567149 117 78 46
0.661615 0.908886 0.566877 121 81 47
0.654768 0.910044 0.565413 117 78 44
0.647989 0.911086 0.564153 116 77 45
0.641394 0.911767 0.563403 110 74 42
0.630679 0.914522 0.559793 111 74 42
0.624448 0.914495 0.560032 110 73 41
0.618017 0.914894 0.559691 113 74 43
0.611388 0.915721 0.558704 110 72 41
0.604697 0.916695 0.557546 114 74 42
0.598747 0.916113 0.558567 109 73 42
0.584843 0.919270 0.554515 109 73 41
0.578508 0.919549 0.554311 114 76 44
0.572178 0.919828 0.554140 114 76 43
0.565665 0.920523 0.553357 108 72 42
0.559170 0.921190 0.552608 115 77 45
0.552662 0.921905 0.551791 113 77 44
0.546080 0.922805 0.550735 117 79 46
0.527234 0.923571 0.550258 118 79 47
0.521058 0.923608 0.550428 117 80 48
0.514333 0.924913 0.548760 121 82 46
0.507587 0.926288 0.547023 118 81 47
0.501432 0.926319 0.547193 122 80 46
0.489289 0.926019 0.548044 119 78 44
0.473017 0.928287 0.545320 117 79 44
0.444765 0.930157 0.543583 114 77 44
0.438385 0.930862 0.542800 107 73 43
0.432000 0.931597 0.541949 107 72 43
0.416659 0.931952 0.541983 112 74 42
0.410297 0.932687 0.541131 107 71 41
0.395037 0.932943 0.541268 116 79 46
0.389111 0.932606 0.541983 116 78 45
0.373523 0.933818 0.540757 116 79 46
0.367644 0.933389 0.541608 112 76 45
0.361731 0.933052 0.542289 112 76 45
0.355368 0.933927 0.541234 112 76 46
0.349136 0.934475 0.540655 103 69 40
0.334302 0.933862 0.542051 111 74 45
0.328247 0.933964 0.542119 104 70 41
0.316032 0.934506 0.541778 102 68 39
0.309975 0.934652 0.541778 107 72 41
0.304166 0.934104 0.542766 112 75 43
0.297863 0.934979 0.541710 109 74 44
0.291568 0.935851 0.540689 107 71 41
0.285644 0.935664 0.541131 103 69 40
0.279848 0.935115 0.542153 101 67 38
0.274229 0.934039 0.543890 98 65 37
0.268496 0.933304 0.545150 100 67 39
0.262660 0.932875 0.545967 100 66 37
0.247488 0.933600 0.545456 95 64 38
0.241475 0.933743 0.545456 105 71 41
0.235794 0.932875 0.546921 102 70 42
0.229873 0.932752 0.547295 92 64 38
0.224136 0.932054 0.548521 91 63 37
0.218394 0.931376 0.549679 92 63 37
0.212284 0.931880 0.549168 94 65 38
0.182535 0.932016 0.550020 94 61 34
0.168058 0.930848 0.552199 107 67 36
0.161892 0.931679 0.551212 108 70 39
0.156288 0.930586 0.552983 115 75 42
0.139908 0.925740 0.560577 125 83 47
0.118488 0.917509 0.573211 129 92 57
0.900291 0.861435 0.621787 126 82 47
0.892880 0.862954 0.619849 114 75 42
0.881854 0.865122 0.617098 99 69 40
0.874671 0.866295 0.615654 102 69 42
0.860075 0.869103 0.612102 90 63 37
0.855512 0.871439 0.608890 91 65 37
0.850959 0.873769 0.605686 93 64 38
0.843835 0.874929 0.604255 97 65 37
0.836462 0.876553 0.602165 104 70 41
0.829365 0.877709 0.600741 111 73 41
0.822019 0.879328 0.598657 109 73 42
0.814943 0.880480 0.597237 101 68 40
0.803742 0.883321 0.593525 102 68 40
0.796182 0.885416 0.590766 102 69 38
0.784685 0.888903 0.586128 102 68 37
0.769704 0.893007 0.580737 113 75 41
0.762559 0.894450 0.578898 110 75 42
0.756052 0.894716 0.578728 106 70 40
0.749237 0.895567 0.577740 109 72 42
0.728905 0.898016 0.574914 114 75 42
0.722006 0.899099 0.573586 113 74 41
0.714915 0.900577 0.571678 113 73 41
0.637612 0.910518 0.559998 112 74 42
0.592024 0.914590 0.555707 111 75 42
0.539717 0.920632 0.548794 119 79 46
0.533272 0.921255 0.548147 118 80 46
0.497223 0.926373 0.541983 122 80 45
0.482554 0.924844 0.544707 123 82 47
0.466610 0.926387 0.543038 117 78 45
0.460359 0.926724 0.542766 124 83 50
0.453950 0.927463 0.541915 123 84 49
0.425623 0.929728 0.539667 110 74 42
0.403806 0.931162 0.538339 109 73 42
0.382698 0.930930 0.539394 110 74 42
0.343094 0.931901 0.539394 113 76 44
0.322133 0.931621 0.540519 106 71 43
0.256489 0.930818 0.543992 98 66 39
0.206260 0.929459 0.547704 99 66 38
0.200439 0.929054 0.548487 102 68 40
0.194460 0.929173 0.548555 102 68 37
0.188355 0.929721 0.547977 100 66 39
0.179056 0.931059 0.546376 97 64 36
0.173526 0.929724 0.548487 101 65 37
0.150227 0.928396 0.551212 115 74 40
0.144749 0.926857 0.553630 112 72 41
0.134119 0.922570 0.560202 117 77 43
0.129185 0.919007 0.565515 132 88 50
0.123168 0.919348 0.565242 137 94 55
0.117632 0.917938 0.567456 133 94 56
0.112182 0.916191 0.570180 134 96 58
0.107270 0.912414 0.575799 140 99 60
0.101808 0.910661 0.578524 153 109 65
0.910930 0.857371 0.621794 121 78 43
0.906346 0.859623 0.618708 123 81 46
0.888552 0.862170 0.615654 99 67 39
0.870200 0.865802 0.611056 91 63 37
0.807454 0.879791 0.593072 105 70 40
0.789054 0.884128 0.587459 101 68 39
0.777424 0.887902 0.582430 106 69 39
0.745171 0.894648 0.573824 111 74 42
0.738799 0.894689 0.573994 111 73 41
0.708150 0.898837 0.569090 117 77 44
0.701629 0.899232 0.568750 118 79 46
0.694257 0.901326 0.565957 116 78 44
0.687684 0.901861 0.565447 118 81 47
0.681119 0.902395 0.564902 114 78 45
0.674710 0.902627 0.564765 114 77 44
0.668419 0.902634 0.565004 115 77 43
0.662222 0.902453 0.565447 117 79 46
0.654511 0.905368 0.561530 117 78 44
0.647590 0.906707 0.559862 113 76 45
0.630875 0.908924 0.557239 113 75 43
0.624375 0.909452 0.556694 108 72 42
0.617005 0.911822 0.553527 108 70 40
0.610756 0.911859 0.553698 109 71 42
0.604783 0.911318 0.554685 114 75 42
0.598369 0.911723 0.554345 111 74 43
0.588274 0.913371 0.552301 107 71 39
0.581500 0.914594 0.550769 111 74 44
0.574796 0.915684 0.549441 113 75 43
0.568335 0.916263 0.548828 111 75 42
0.561838 0.916937 0.548113 113 76 44
0.555189 0.917962 0.546853 106 72 41
0.549302 0.917315 0.547977 113 76 44
0.526720 0.919542 0.545559 116 78 46
0.520428 0.919845 0.545354 117 80 48
0.514059 0.920342 0.544843 124 83 47
0.507737 0.920748 0.544503 120 82 49
0.491944 0.921786 0.543549 120 79 45
0.476045 0.923162 0.542119 113 77 43
0.447409 0.925938 0.539122 115 77 44
0.441065 0.926554 0.538475 111 75 43
0.434728 0.927167 0.537794 107 73 42
0.419298 0.927746 0.537521 112 75 42
0.412934 0.928481 0.536670 116 78 44
0.397685 0.928710 0.536875 112 76 44
0.391886 0.928042 0.538067 115 78 45
0.376273 0.929309 0.536772 114 77 44
0.370190 0.929418 0.536840 116 78 44
0.364311 0.928992 0.537658 113 77 44
0.358478 0.928447 0.538646 113 77 46
0.352173 0.929179 0.537794 109 74 43
0.337007 0.929459 0.537930 110 73 42
0.331214 0.928836 0.539054 104 70 40
0.316022 0.929278 0.538952 101 69 40
0.309897 0.929619 0.538679 104 71 41
0.303842 0.929772 0.538646 103 70 39
0.297732 0.930096 0.538407 106 72 41
0.291609 0.930470 0.538101 106 71 42
0.285767 0.930041 0.538918 107 71 42
0.279867 0.929786 0.539497 96 65 36
0.273863 0.929847 0.539599 102 67 39
0.268249 0.928757 0.541370 105 69 39
0.262303 0.928659 0.541710 101 67 40
0.250431 0.928430 0.542460 95 65 38
0.244466 0.928420 0.542698 100 69 41
0.238496 0.928437 0.542902 96 64 37
0.232555 0.928372 0.543175 100 68 40
0.226892 0.927443 0.544741 99 68 41
0.221032 0.927136 0.545388 94 64 38
0.215032 0.927283 0.545388 96 66 39
0.167877 0.926101 0.548760 103 66 37
0.162166 0.925365 0.550020 99 63 34
0.156068 0.925975 0.549373 104 68 36
0.139662 0.921214 0.556797 111 72 40
0.119680 0.918568 0.561326 136 92 52
0.899964 0.856723 0.617625 110 71 40
0.892615 0.858141 0.615841 100 67 39
0.881155 0.861069 0.612030 103 71 43
0.874450 0.861414 0.611764 101 69 40
0.866171 0.864544 0.607552 98 69 41
0.858798 0.866105 0.605563 96 66 38
0.851408 0.867715 0.603503 97 65 36
0.843920 0.869529 0.601156 101 68 40
0.836806 0.870692 0.599730 108 73 42
0.829443 0.872319 0.597645 115 75 43
0.822353 0.873479 0.596225 110 73 40
0.814851 0.875409 0.593709 106 70 39
0.803480 0.878567 0.589564 106 71 42
0.796018 0.880486 0.587065 106 71 39
0.781548 0.883562 0.583145 107 71 39
0.770368 0.886546 0.579239 112 72 41
0.762883 0.888627 0.576514 113 75 42
0.755789 0.889993 0.574812 107 71 41
0.731617 0.893688 0.570316 113 74 42
0.724760 0.894692 0.569124 112 74 42
0.718276 0.894985 0.568920 112 73 41
0.640622 0.905563 0.556422 115 77 44
0.542919 0.915176 0.546035 112 76 44
0.536291 0.916205 0.544775 116 79 45
0.500885 0.919797 0.540859 118 80 46
0.485510 0.919900 0.541268 116 75 42
0.469543 0.921480 0.539531 117 78 44
0.463174 0.922100 0.538884 124 81 45
0.456813 0.922716 0.538203 119 81 48
0.428286 0.925461 0.535274 112 76 44
0.406442 0.926959 0.533878 110 73 42
0.385391 0.926578 0.535206 113 77 46
0.345764 0.927596 0.535138 113 75 43
0.324966 0.926857 0.536943 98 66 38
0.256481 0.925553 0.541234 97 64 38
0.209240 0.924109 0.545014 94 64 37
0.203267 0.924187 0.545082 101 68 40
0.197265 0.924378 0.545048 105 70 41
0.191227 0.924698 0.544809 108 71 41
0.185183 0.925059 0.544503 100 67 39
0.179710 0.923516 0.546921 101 67 38
0.173598 0.924126 0.546240 103 67 38
0.150125 0.923370 0.548181 101 65 35
0.144731 0.921527 0.551007 104 67 36
0.133760 0.918445 0.555843 111 71 40
0.127712 0.918922 0.555366 114 76 42
0.113870 0.915469 0.560849 134 91 54
0.108623 0.912980 0.564595 128 90 55
0.103799 0.908862 0.570725 134 95 57
0.918909 0.849646 0.621657 121 77 43
0.914567 0.851467 0.619195 119 78 44
0.907194 0.852893 0.617404 110 72 39
0.884935 0.857520 0.611540 104 73 44
0.870101 0.860712 0.607474 100 69 40
0.810924 0.874083 0.590344 103 69 38
0.788734 0.879492 0.583356 109 70 39
0.777738 0.882094 0.579988 109 71 39
0.749203 0.887810 0.572802 107 71 40
0.742477 0.888511 0.572019 111 73 41
0.735418 0.889873 0.570316 113 74 42
0.711324 0.893602 0.565821 116 77 44
0.704837 0.893929 0.565583 118 77 44
0.697551 0.895847 0.563063 117 79 45
0.690747 0.896834 0.561905 115 78 44
0.684224 0.897277 0.561496 114 77 44
0.677708 0.897720 0.561088 113 75 44
0.671139 0.898285 0.560509 114 77 43
0.664658 0.898680 0.560168 118 78 45
0.657805 0.899848 0.558738 118 79 45
0.650878 0.901190 0.557035 116 76 44
0.634031 0.903662 0.554106 111 73 41
0.627338 0.904589 0.552983 109 72 40
0.620017 0.906850 0.550020 109 73 43
0.615994 0.908757 0.547397 110 73 41
0.610416 0.907385 0.549577 107 70 40
0.603930 0.907940 0.548998 108 71 41
0.597668 0.908025 0.549100 111 73 42
0.591254 0.908450 0.548725 112 74 41
0.584573 0.909465 0.547500 113 75 42
0.577759 0.910787 0.545831 110 73 43
0.571048 0.911910 0.544469 109 74 42
0.564968 0.911665 0.545048 103 70 42
0.558370 0.912571 0.543958 106 71 42
0.551864 0.913293 0.543175 111 74 44
0.529687 0.914604 0.542051 114 76 44
0.523491 0.914686 0.542153 112 76 45
0.516863 0.915769 0.540859 120 80 46
0.510424 0.916440 0.540110 118 79 47
0.494135 0.918636 0.537521 118 78 44
0.478884 0.918486 0.538305 116 75 43
0.450429 0.920802 0.535989 118 79 44
0.444243 0.921023 0.535887 110 75 43
0.437838 0.921796 0.535002 109 74 43
0.421982 0.923424 0.533231 113 76 44
0.415707 0.923935 0.532720 110 75 43
0.400187 0.924851 0.531937 109 73 42
0.394364 0.924245 0.533026 114 76 43
0.379080 0.924654 0.532992 111 76 45
0.373002 0.924742 0.533060 114 77 45
0.366859 0.925018 0.532890 114 75 44
0.361232 0.923921 0.534661 110 75 42
0.354954 0.924579 0.533946 108 73 42
0.339584 0.925410 0.533299 100 68 39
0.333602 0.925308 0.533673 104 69 40
0.318849 0.924528 0.535308 104 70 41
0.312801 0.924640 0.535376 103 69 39
0.306824 0.924562 0.535683 99 68 40
0.300822 0.924565 0.535921 103 69 39
0.294698 0.924936 0.535580 107 70 38
0.288673 0.925028 0.535683 104 69 39
0.283022 0.924037 0.537317 103 70 41
0.277148 0.923703 0.537998 99 65 37
0.270809 0.924759 0.536704 98 64 35
0.265063 0.924061 0.537930 100 64 36
0.250293 0.923560 0.539156 96 65 39
0.244159 0.924065 0.538646 94 63 37
0.238125 0.924282 0.538577 94 64 38
0.232512 0.923196 0.540314 98 66 39
0.226584 0.923101 0.540689 95 65 38
0.220797 0.922566 0.541642 93 63 38
0.215066 0.921851 0.542868 94 63 37
0.168009 0.920288 0.546818 97 64 36
0.162310 0.919498 0.548181 99 65 35
0.156290 0.919828 0.547908 95 61 33
0.139166 0.917577 0.551757 108 70 37
0.121767 0.916331 0.554175 111 73 40
0.100277 0.908256 0.566536 131 91 54
0.900550 0.850434 0.615695 97 64 34
0.895809 0.852986 0.612204 96 63 35
0.891222 0.855288 0.609064 94 62 34
0.878111 0.855433 0.609316 93 63 37
0.862616 0.859829 0.603561 103 70 41
0.854984 0.861862 0.600915 103 69 40
0.847370 0.863892 0.598272 98 67 39
0.840061 0.865397 0.596372 106 72 41
0.832624 0.867160 0.594107 112 75 42
0.824532 0.870124 0.590143 112 73 41
0.817990 0.870312 0.590102 107 71 38
0.807004 0.872758 0.586983 106 71 41
0.799437 0.874865 0.584228 107 70 39
0.781419 0.878576 0.579545 110 72 40
0.770773 0.880565 0.577059 111 72 40
0.766360 0.882859 0.573926 110 72 40
0.762069 0.884942 0.571100 109 71 39
0.756031 0.884319 0.572189 109 72 41
0.728387 0.888596 0.567047 112 73 42
0.721422 0.889816 0.565549 115 76 43
0.643947 0.899961 0.553766 112 74 43
0.545261 0.911652 0.540484 112 75 42
0.538827 0.912244 0.539871 113 75 43
0.503590 0.915445 0.536534 115 79 46
0.488129 0.915748 0.536670 116 76 44
0.472478 0.916573 0.536057 118 78 44
0.466106 0.917192 0.535376 115 77 43
0.459774 0.917734 0.534831 116 77 43
0.431433 0.919988 0.532618 112 76 43
0.409344 0.922079 0.530404 112 73 42
0.388103 0.922175 0.531051 110 76 45
0.348392 0.923407 0.530711 103 69 39
0.327582 0.922699 0.532447 101 68 39
0.259182 0.921126 0.537181 90 59 32
0.209210 0.918875 0.542221 96 65 38
0.203233 0.918967 0.542289 100 68 40
0.197223 0.919174 0.542221 107 72 43
0.191242 0.919304 0.542255 106 71 40
0.185265 0.919433 0.542289 104 68 38
0.179292 0.919566 0.542323 101 67 38
0.173815 0.918030 0.544707 102 69 39
0.150375 0.917111 0.546887 101 65 34
0.144644 0.916447 0.548044 101 65 35
0.133037 0.915636 0.549611 105 67 37
0.126910 0.916419 0.548725 110 72 39
0.116408 0.911580 0.556047 115 76 42
0.110677 0.910906 0.557239 127 84 48
0.105081 0.909724 0.559112 132 90 53
0.922988 0.842988 0.620101 118 75 41
0.912009 0.844955 0.617673 98 64 36
0.885865 0.850630 0.610474 95 67 40
0.870251 0.855182 0.604511 97 66 39
0.858754 0.858294 0.600462 105 70 40
0.814033 0.869042 0.586663 105 70 39
0.795627 0.873363 0.581132 110 72 39
0.788540 0.874624 0.579579 110 71 40
0.749441 0.882140 0.570214 108 72 41
0.742491 0.883272 0.568852 111 73 40
0.735305 0.884878 0.566809 113 74 42
0.714485 0.888395 0.562484 112 74 41
0.707633 0.889438 0.561258 115 78 45
0.700630 0.890793 0.559555 114 76 44
0.693753 0.891920 0.558193 113 75 42
0.687227 0.892366 0.557784 118 77 44
0.680708 0.892812 0.557375 117 77 43
0.674195 0.893259 0.556967 114 75 42
0.667354 0.894379 0.555605 115 76 43
0.660413 0.895727 0.553936 111 73 42
0.653798 0.896429 0.553153 115 74 42
0.640168 0.898707 0.550394 115 76 42
0.633379 0.899821 0.549032 108 71 41
0.626386 0.901384 0.547057 108 71 39
0.619761 0.902194 0.546137 108 72 39
0.613492 0.902273 0.546240 106 70 39
0.607146 0.902521 0.546103 107 70 39
0.600804 0.902773 0.545967 106 70 40
0.594230 0.903536 0.545116 113 73 41
0.587664 0.904299 0.544264 108 70 39
0.581054 0.905171 0.543243 113 76 43
0.574436 0.906084 0.542187 110 74 42
0.567843 0.906955 0.541165 106 71 40
0.561414 0.907487 0.540655 107 71 41
0.555195 0.907565 0.540757 109 72 42
0.532348 0.910357 0.537590 115 77 44
0.525900 0.911018 0.536875 114 76 44
0.519622 0.911301 0.536670 118 80 45
0.513081 0.912203 0.535614 121 81 47
0.496788 0.914407 0.533060 113 77 45
0.481722 0.913814 0.534457 114 75 43
0.453258 0.916137 0.532141 116 77 44
0.447125 0.916222 0.532243 112 76 44
0.441081 0.916099 0.532652 109 73 42
0.424755 0.918878 0.529246 112 75 42
0.418593 0.919099 0.529144 109 74 42
0.402969 0.920271 0.528054 115 77 45
0.396915 0.920264 0.528259 111 75 43
0.381783 0.920271 0.528804 112 76 44
0.375634 0.920547 0.528633 114 76 44
0.369585 0.920570 0.528838 114 77 45
0.363445 0.920846 0.528633 108 73 41
0.357499 0.920611 0.529212 107 72 42
0.342366 0.920795 0.529485 103 69 40
0.336414 0.920608 0.529961 101 69 39
0.321480 0.920322 0.530915 103 70 40
0.315525 0.920172 0.531358 100 68 38
0.309508 0.920206 0.531528 106 71 41
0.303479 0.920285 0.531630 108 70 40
0.297727 0.919580 0.532856 109 71 41
0.291729 0.919583 0.533060 103 69 41
0.285874 0.919185 0.533844 96 64 37
0.280396 0.917672 0.536193 96 63 35
0.274168 0.918384 0.535410 90 60 33
0.267686 0.919876 0.533503 80 53 29
0.253012 0.919075 0.535206 95 64 35
0.246919 0.919454 0.534865 95 64 37
0.240869 0.919716 0.534729 92 63 37
0.235074 0.919198 0.535683 96 64 36
0.229291 0.918643 0.536670 94 63 36
0.223582 0.917856 0.537998 92 62 36
0.217646 0.917795 0.538305 97 66 39
0.167802 0.915622 0.543243 96 64 39
0.162243 0.914349 0.545286 98 64 35
0.156532 0.913600 0.546546 97 62 35
0.138803 0.913470 0.547397 101 63 32
0.121522 0.911805 0.550394 111 72 38
0.100031 0.903724 0.562756 129 88 51
0.094484 0.902310 0.565004 139 94 54
0.927211 0.838737 0.620554 113 72 38
0.915891 0.841268 0.617339 94 63 35
0.904606 0.843790 0.614135 95 62 34
0.896310 0.846846 0.610065 98 64 34
0.881632 0.849697 0.606513 94 63 36
0.874062 0.851559 0.604119 91 61 34
0.866263 0.853857 0.601112 105 69 40
0.851698 0.856685 0.597591 104 70 40
0.844741 0.857548 0.596607 111 73 42
0.837429 0.859065 0.594700 109 72 42
0.829467 0.861780 0.591103 107 72 40
0.821927 0.863762 0.588539 107 71 41
0.809841 0.868208 0.582614 108 72 40
0.802788 0.869367 0.581211 102 69 38
0.781719 0.872788 0.577059 111 73 39
0.774359 0.874602 0.574744 111 73 40
0.766786 0.876842 0.571815 108 70 38
0.759852 0.877896 0.570555 109 72 40
0.730562 0.885307 0.561019 111 73 41
0.724352 0.885065 0.561564 111 73 41
0.646925 0.895077 0.550054 109 72 42
0.548250 0.906676 0.537045 111 74 43
0.541823 0.907248 0.536432 109 73 43
0.506561 0.910477 0.533095 118 79 46
0.490532 0.912108 0.531358 113 75 43
0.475037 0.912564 0.531255 111 72 40
0.468978 0.912431 0.531664 112 73 40
0.462658 0.912939 0.531187 113 75 42
0.434403 0.914955 0.529315 113 73 41
0.412248 0.917192 0.526931 108 73 41
0.390685 0.918108 0.526386 108 73 42
0.351005 0.919256 0.526216 105 71 41
0.330289 0.918285 0.528361 106 71 41
0.261817 0.916903 0.532822 82 55 31
0.211841 0.914659 0.537896 97 64 37
0.206101 0.913971 0.539054 93 64 37
0.200265 0.913606 0.539803 101 67 40
0.194240 0.913869 0.539667 97 66 37
0.188257 0.914005 0.539667 104 68 39
0.182275 0.914151 0.539701 101 68 38
0.176530 0.913514 0.540825 99 67 38
0.150431 0.911522 0.544639 95 61 33
0.144749 0.910674 0.546035 100 65 35
0.132802 0.911076 0.545899 99 62 33
0.127081 0.910378 0.547125 103 65 38
0.116208 0.906884 0.552506 110 70 37
0.110538 0.905978 0.554038 113 73 40
0.104845 0.905161 0.555401 117 77 44
0.079014 0.890602 0.577195 141 98 57
0.908743 0.839655 0.614434 101 68 39
0.900747 0.842170 0.611131 96 62 35
0.888705 0.846088 0.605972 105 70 40
0.862279 0.852534 0.597720 108 73 42
0.855509 0.853035 0.597250 107 73 43
0.833434 0.857817 0.591219 109 73 41
0.817916 0.862586 0.584967 102 68 38
0.795422 0.868505 0.577332 110 72 41
0.788458 0.869542 0.576106 107 70 38
0.770477 0.873284 0.571406 109 70 39
0.752588 0.876986 0.566775 109 72 40
0.745351 0.878666 0.564629 108 71 41
0.737652 0.881258 0.561224 110 72 41
0.717847 0.882799 0.559725 111 73 42
0.710413 0.884973 0.556899 114 76 43
0.703818 0.885525 0.556354 114 77 44
0.697035 0.886458 0.555264 110 73 42
0.690474 0.886969 0.554753 114 76 44
0.683709 0.887902 0.553664 115 78 46
0.676953 0.888831 0.552608 112 74 40
0.670369 0.889434 0.551961 112 75 42
0.663539 0.890551 0.550633 111 72 42
0.656741 0.891620 0.549339 112 74 42
0.640250 0.893337 0.547500 113 76 43
0.633267 0.894856 0.545593 111 74 42
0.626198 0.896579 0.543379 110 72 41
0.620103 0.896279 0.544026 108 71 40
0.613721 0.896589 0.543822 105 68 38
0.607265 0.897073 0.543345 105 70 40
0.600709 0.897781 0.542596 106 70 40
0.594063 0.898700 0.541506 117 75 42
0.587427 0.899617 0.540450 111 73 39
0.580827 0.900471 0.539463 112 74 43
0.573882 0.902099 0.537385 112 73 42
0.567572 0.902358 0.537249 105 72 41
0.561207 0.902750 0.536943 107 72 42
0.556063 0.900434 0.540416 109 73 43
0.535105 0.905896 0.533401 111 74 43
0.528874 0.906056 0.533401 114 77 44
0.522984 0.905447 0.534457 114 76 43
0.516357 0.906540 0.533162 119 80 46
0.500029 0.908798 0.530506 115 77 45
0.484247 0.909888 0.529553 110 72 41
0.456137 0.911348 0.528497 116 76 43
0.449597 0.912428 0.527169 115 77 43
0.443750 0.911822 0.528259 108 74 42
0.427674 0.913967 0.525773 113 74 43
0.421481 0.914264 0.525602 114 75 42
0.405911 0.915282 0.524717 114 78 44
0.399814 0.915377 0.524785 110 74 43
0.384448 0.915990 0.524479 109 74 44
0.378374 0.916062 0.524615 109 72 40
0.372311 0.916120 0.524751 111 75 43
0.366170 0.916399 0.524581 111 74 43
0.360033 0.916675 0.524410 107 73 42
0.344938 0.916756 0.524853 103 70 40
0.339031 0.916447 0.525500 102 68 39
0.324163 0.915977 0.526726 105 71 40
0.318203 0.915837 0.527135 103 70 40
0.312271 0.915629 0.527646 106 69 39
0.306304 0.915527 0.528020 110 73 42
0.300496 0.914975 0.529008 104 69 40
0.294743 0.914264 0.530234 98 65 37
0.288698 0.914410 0.530268 95 63 36
0.282723 0.914362 0.530540 97 65 36
0.276960 0.913698 0.531698 99 65 37
0.270881 0.913974 0.531528 95 65 39
0.256123 0.913399 0.532890 97 65 37
0.249975 0.913933 0.532379 96 63 36
0.243917 0.914209 0.532209 98 65 37
0.237971 0.914148 0.532515 93 62 36
0.232072 0.913954 0.532992 90 61 33
0.226346 0.913218 0.534252 89 60 34
0.220620 0.912479 0.535547 92 62 35
0.170606 0.910804 0.539769 96 64 37
0.164667 0.910834 0.539939 91 61 34
0.159127 0.909496 0.542085 96 63 34
0.138708 0.908403 0.544401 98 64 34
0.121780 0.905426 0.549270 105 67 36
0.099429 0.900550 0.557069 116 75 43
0.094238 0.897774 0.561224 122 79 44
0.048283 0.867736 0.605839 198 149 92
0.931308 0.832058 0.618991 108 71 39
0.923891 0.833506 0.617196 107 70 38
0.912578 0.836044 0.613989 104 69 39
0.904769 0.838226 0.611162 101 67 35
0.892877 0.841859 0.606411 110 71 40
0.884544 0.845028 0.602195 104 70 40
0.877161 0.846560 0.600281 98 65 38
0.869914 0.847878 0.598664 107 72 41
0.848589 0.851193 0.594710 106 71 40
0.840862 0.853451 0.591771 111 74 41
0.829000 0.857381 0.586601 108 73 41
0.821611 0.859097 0.584422 106 71 40
0.810665 0.861459 0.581452 105 70 39
0.803088 0.863581 0.578694 110 73 43
0.781460 0.868046 0.573109 109 71 41
0.766329 0.872479 0.567354 105 69 37
0.759065 0.874166 0.565208 108 71 41
0.733885 0.879800 0.558091 111 73 43
0.727942 0.879033 0.559419 112 74 41
0.649895 0.890211 0.546308 112 74 42
0.552079 0.899824 0.536193 110 74 42
0.545573 0.900557 0.535376 112 75 42
0.541467 0.902855 0.532277 112 75 43
0.509792 0.904909 0.530506 121 82 48
0.493485 0.907170 0.527884 116 78 45
0.477530 0.908713 0.526249 111 74 43
0.471260 0.909087 0.525943 113 76 43
0.465330 0.908658 0.526794 117 77 43
0.437256 0.910221 0.525602 111 73 41
0.415153 0.912305 0.523457 114 76 43
0.393568 0.913262 0.522878 106 71 42
0.353849 0.914478 0.522606 109 74 44
0.332979 0.913920 0.524172 104 70 42
0.264826 0.911549 0.530098 109 72 42
0.214466 0.910456 0.533503 92 62 35
0.208735 0.909745 0.534763 91 62 36
0.202997 0.909053 0.535955 103 68 39
0.197115 0.908839 0.536466 96 65 37
0.191340 0.908280 0.537487 100 68 39
0.185392 0.908301 0.537692 100 67 38
0.179471 0.908239 0.537998 97 64 36
0.153320 0.906383 0.541608 92 60 35
0.147460 0.906159 0.542153 91 61 34
0.132901 0.905300 0.543924 101 64 35
0.127197 0.904537 0.545218 96 62 34
0.115999 0.902215 0.548930 108 68 36
0.110450 0.900856 0.551076 104 68 37
0.104607 0.900604 0.551688 106 69 38
0.088470 0.894461 0.561054 112 74 40
0.073180 0.884697 0.575527 136 92 53
0.044775 0.867162 0.601613 204 153 94
0.916419 0.832427 0.613542 102 67 38
0.897056 0.837623 0.606850 109 71 40
0.888818 0.840612 0.602897 107 70 39
0.863014 0.845957 0.596229 106 71 40
0.855863 0.847143 0.594802 106 71 40
0.836792 0.852333 0.588110 110 74 41
0.814725 0.857287 0.581868 105 71 40
0.798181 0.864104 0.572768 113 73 42
0.791469 0.864670 0.572223 110 72 40
0.777530 0.866802 0.569669 112 73 41
0.751900 0.873080 0.561700 108 72 41
0.744602 0.874887 0.559385 107 71 40
0.737550 0.876240 0.557716 108 72 40
0.721308 0.877009 0.557205 108 72 41
0.714402 0.878137 0.555877 113 75 43
0.707116 0.880038 0.553425 119 80 46
0.700228 0.881175 0.552063 113 75 43
0.693211 0.882588 0.550292 114 77 44
0.686698 0.883015 0.549951 115 76 42
0.680015 0.883795 0.549066 116 77 43
0.673321 0.884615 0.548147 112 73 42
0.666788 0.885123 0.547670 110 73 42
0.660054 0.886056 0.546580 110 72 42
0.646138 0.888903 0.543038 110 72 39
0.639706 0.889267 0.542766 110 73 42
0.633443 0.889291 0.542970 110 72 43
0.626792 0.890136 0.542017 106 69 39
0.620426 0.890398 0.541881 109 71 40
0.613178 0.892547 0.539088 108 71 40
0.606799 0.892867 0.538850 106 69 39
0.600456 0.893126 0.538713 107 71 41
0.583809 0.895537 0.535887 109 72 40
0.577098 0.896647 0.534559 105 69 40
0.570242 0.898101 0.532754 109 72 41
0.563745 0.898782 0.532005 106 72 42
0.557392 0.899160 0.531732 109 73 42
0.540340 0.902801 0.527169 114 77 45
0.534499 0.902079 0.528395 114 76 43
0.529125 0.900287 0.531153 115 77 44
0.522751 0.900781 0.530677 112 75 43
0.516204 0.901690 0.529621 113 77 44
0.503136 0.903509 0.527544 119 77 43
0.486972 0.905484 0.525330 116 76 44
0.459366 0.905709 0.526011 115 74 42
0.452877 0.906652 0.524921 116 76 41
0.446683 0.906894 0.524819 114 76 43
0.430833 0.908457 0.523150 112 74 41
0.424506 0.909080 0.522503 117 77 44
0.408718 0.910640 0.520869 111 74 43
0.402760 0.910375 0.521482 111 75 43
0.387340 0.911110 0.521005 110 74 43
0.380954 0.912002 0.519983 112 74 43
0.374892 0.912060 0.520120 108 73 42
0.368895 0.911951 0.520494 110 72 42
0.362925 0.911778 0.520971 108 72 42
0.347855 0.911774 0.521516 108 74 43
0.341812 0.911835 0.521686 106 72 43
0.326907 0.911457 0.522776 101 68 39
0.320954 0.911297 0.523219 101 67 38
0.314969 0.911236 0.523525 103 67 37
0.308986 0.911175 0.523832 104 70 40
0.303016 0.911093 0.524172 100 66 38
0.297369 0.910075 0.525841 98 65 36
0.291504 0.909693 0.526590 95 64 38
0.285455 0.909860 0.526590 98 64 38
0.279486 0.909802 0.526897 99 67 39
0.273672 0.909288 0.527850 104 69 39
0.258940 0.908624 0.529348 101 67 38
0.252991 0.908539 0.529689 98 65 38
0.247072 0.908375 0.530132 101 67 38
0.241313 0.907718 0.531289 99 67 38
0.235336 0.907752 0.531460 96 63 37
0.229348 0.907827 0.531596 90 61 36
0.223779 0.906581 0.533571 90 59 34
0.173523 0.905600 0.536840 97 65 37
0.167535 0.905791 0.536806 95 63 36
0.161646 0.905654 0.537215 96 63 36
0.141622 0.903162 0.541506 93 59 34
0.121745 0.900124 0.546580 96 62 34
0.099040 0.896562 0.552506 107 69 38
0.093992 0.893238 0.557444 105 70 38
0.082924 0.890265 0.562109 121 79 43
0.075361 0.885055 0.569806 127 85 50
0.931151 0.827029 0.615221 100 67 37
0.924061 0.827921 0.614213 98 65 35
0.912496 0.830894 0.610412 100 65 36
0.905358 0.831914 0.609224 109 71 40
0.892823 0.836674 0.602921 108 71 40
0.881918 0.838642 0.600523 98 67 39
0.874535 0.840185 0.598599 113 76 44
0.851415 0.846669 0.590232 112 74 42
0.843423 0.849406 0.586636 110 73 42
0.832838 0.851016 0.584739 107 71 39
0.825384 0.852845 0.582413 108 73 41
0.810798 0.855971 0.578490 109 73 40
0.802826 0.858825 0.574744 113 74 41
0.784419 0.863257 0.569124 111 72 40
0.773150 0.866423 0.565038 110 72 40
0.766394 0.867132 0.564289 108 70 38
0.759236 0.868620 0.562416 112 73 42
0.731316 0.873422 0.556626 116 77 44
0.653319 0.884408 0.543890 107 70 39
0.550894 0.897277 0.529417 110 74 43
0.544438 0.897914 0.528735 114 77 46
0.509539 0.900294 0.526658 119 78 45
0.496489 0.902109 0.524581 119 78 45
0.480572 0.903550 0.523117 118 78 46
0.474400 0.903686 0.523150 114 75 44
0.468429 0.903346 0.523865 115 77 44
0.440199 0.905256 0.522197 111 74 42
0.417926 0.907759 0.519473 119 79 44
0.396531 0.908205 0.519643 106 71 41
0.356831 0.909329 0.519540 108 73 43
0.335757 0.909312 0.520358 103 70 40
0.267675 0.906686 0.526624 104 69 39
0.217556 0.904762 0.531255 90 61 34
0.211361 0.905539 0.530404 89 60 34
0.205893 0.903969 0.532822 90 60 33
0.200049 0.903618 0.533537 93 63 35
0.194155 0.903444 0.534014 96 64 36
0.188419 0.902750 0.535206 99 64 36
0.182586 0.902382 0.535955 102 67 36
0.156112 0.901592 0.538101 93 62 34
0.150351 0.901009 0.539122 92 60 34
0.135718 0.900400 0.540553 97 62 33
0.130199 0.898952 0.542834 95 61 33
0.115660 0.898036 0.544673 95 60 32
0.110126 0.896627 0.546887 100 62 34
0.104528 0.895441 0.548794 102 65 35
0.088019 0.890725 0.556116 106 69 37
0.069635 0.881497 0.569942 132 87 48
0.042129 0.860126 0.601395 199 149 91
0.936157 0.821444 0.617506 100 66 36
0.900727 0.831637 0.604347 113 74 41
0.870496 0.838941 0.595098 108 72 42
0.862752 0.841160 0.592234 95 64 37
0.855597 0.842351 0.590810 114 76 44
0.839544 0.847943 0.583468 108 71 40
0.821273 0.851842 0.578626 106 72 41
0.806875 0.854657 0.575152 112 74 42
0.795525 0.857849 0.571032 112 73 40
0.788560 0.858886 0.569840 113 73 41
0.780506 0.861985 0.565719 114 75 42
0.752673 0.866384 0.560509 108 71 40
0.748287 0.868691 0.557410 110 72 40
0.743989 0.870845 0.554515 108 70 41
0.737996 0.870165 0.555707 110 74 42
0.724630 0.871490 0.554311 111 75 42
0.717838 0.872389 0.553289 113 74 42
0.710454 0.874476 0.550599 116 78 45
0.703547 0.875642 0.549202 117 78 45
0.696397 0.877315 0.547091 116 77 45
0.689958 0.877586 0.546955 111 72 41
0.683311 0.878289 0.546206 110 73 41
0.676461 0.879416 0.544843 117 75 43
0.669622 0.880541 0.543515 113 75 42
0.663163 0.880911 0.543243 110 72 40
0.646449 0.883057 0.540791 108 71 40
0.639855 0.883754 0.540076 109 73 42
0.633412 0.884152 0.539735 110 72 41
0.626870 0.884772 0.539122 107 71 41
0.620388 0.885279 0.538611 106 70 39
0.613146 0.887415 0.535853 107 70 39
0.609033 0.889543 0.532992 105 69 39
0.602893 0.889373 0.533469 108 71 41
0.596346 0.890081 0.532720 102 68 39
