ply
format ascii 1.0
element vertex 1325
property float x
property float y
property float z
property uchar red
property uchar green
property uchar blue
end_header
0.331021 0.245788 0.076313 50 67 79
0.333003 0.245788 0.100099 37 57 80
0.085233 0.246779 0.058474 22 39 57
0.087215 0.246779 0.075322 40 58 71
0.089197 0.246779 0.046581 22 41 60
0.092170 0.246779 0.038652 23 44 62
0.099108 0.246779 0.093162 49 66 78
0.099108 0.246779 0.031715 31 49 64
0.102081 0.246779 0.096135 62 74 81
0.104063 0.246779 0.028741 38 55 69
0.106046 0.246779 0.099108 68 81 88
0.111001 0.246779 0.026759 44 59 71
0.119921 0.246779 0.025768 49 62 75
0.123885 0.246779 0.025768 51 64 75
0.132805 0.246779 0.104063 74 86 94
0.133796 0.246779 0.029732 50 63 74
0.141724 0.246779 0.032706 51 62 74
0.155600 0.246779 0.071358 29 49 65
0.156591 0.246779 0.066402 32 48 65
0.157582 0.246779 0.062438 25 44 62
0.264618 0.246779 0.089197 15 35 52
0.265610 0.246779 0.111992 19 37 53
0.265610 0.246779 0.084242 27 41 55
0.267592 0.246779 0.117939 32 48 61
0.268583 0.246779 0.075322 24 40 56
0.278494 0.246779 0.067393 24 40 59
0.281467 0.246779 0.133796 76 86 94
0.285431 0.246779 0.134787 79 88 97
0.285431 0.246779 0.062438 23 42 57
0.299306 0.246779 0.136769 89 99 110
0.307235 0.246779 0.057483 49 63 74
0.311199 0.246779 0.130823 71 86 97
0.313181 0.246779 0.127849 58 74 90
0.313181 0.246779 0.057483 48 62 73
0.316155 0.246779 0.124876 54 72 88
0.318137 0.246779 0.061447 50 64 75
0.320119 0.246779 0.121903 40 64 82
0.321110 0.246779 0.063429 50 64 76
0.325074 0.246779 0.067393 46 61 73
0.328048 0.246779 0.111001 36 59 77
0.330030 0.246779 0.108028 46 65 82
0.331021 0.246779 0.080278 43 65 78
0.086224 0.247770 0.064420 24 43 58
0.086224 0.247770 0.055500 23 42 60
0.090188 0.247770 0.043608 22 43 60
0.092170 0.247770 0.084242 34 50 64
0.114965 0.247770 0.103072 84 94 101
0.118930 0.247770 0.105055 88 97 103
0.126858 0.247770 0.026759 51 67 74
0.136769 0.247770 0.030723 55 67 77
0.140733 0.247770 0.100099 57 73 84
0.144698 0.247770 0.095144 46 64 78
0.144698 0.247770 0.036670 49 62 72
0.146680 0.247770 0.092170 39 57 73
0.148662 0.247770 0.088206 36 53 70
0.152626 0.247770 0.044599 41 58 69
0.153617 0.247770 0.077304 28 47 68
0.155600 0.247770 0.049554 32 47 63
0.157582 0.247770 0.058474 24 43 62
0.158573 0.247770 0.054509 31 48 63
0.264618 0.247770 0.103072 18 35 53
0.266601 0.247770 0.081269 25 41 56
0.270565 0.247770 0.072349 32 47 62
0.273538 0.247770 0.127849 48 61 72
0.275520 0.247770 0.130823 62 73 82
0.280476 0.247770 0.064420 24 43 59
0.288404 0.247770 0.135778 85 97 103
0.288404 0.247770 0.061447 27 46 61
0.302279 0.247770 0.135778 86 97 107
0.302279 0.247770 0.057483 53 66 76
0.306244 0.247770 0.133796 77 90 102
0.323092 0.247770 0.119921 46 71 85
0.328048 0.247770 0.070367 45 61 73
0.332012 0.247770 0.105055 34 53 77
0.332012 0.247770 0.087215 43 66 78
0.333003 0.247770 0.094153 37 63 81
0.087215 0.248761 0.072349 27 42 60
0.087215 0.248761 0.068385 24 42 62
0.087215 0.248761 0.052527 22 40 59
0.089197 0.248761 0.077304 27 46 60
0.091179 0.248761 0.081269 38 49 65
0.094153 0.248761 0.087215 35 53 66
0.094153 0.248761 0.036670 25 46 62
0.096135 0.248761 0.090188 36 53 66
0.102081 0.248761 0.030723 36 54 67
0.107037 0.248761 0.028741 38 53 68
0.108028 0.248761 0.101090 70 81 90
0.111992 0.248761 0.102081 78 88 96
0.113974 0.248761 0.027750 42 59 72
0.121903 0.248761 0.106046 87 96 104
0.127849 0.248761 0.105055 82 92 100
0.129832 0.248761 0.028741 51 65 73
0.135778 0.248761 0.104063 72 86 94
0.143707 0.248761 0.098117 53 67 82
0.148662 0.248761 0.040634 46 58 70
0.149653 0.248761 0.085233 30 53 66
0.151635 0.248761 0.082260 33 50 69
0.264618 0.248761 0.109019 19 37 53
0.264618 0.248761 0.099108 23 40 55
0.264618 0.248761 0.095144 18 31 46
0.265610 0.248761 0.114965 27 40 57
0.268583 0.248761 0.120912 30 50 61
0.270565 0.248761 0.123885 36 52 65
0.273538 0.248761 0.071358 27 42 58
0.291378 0.248761 0.136769 92 102 109
0.291378 0.248761 0.059465 30 50 63
0.294351 0.248761 0.057483 32 47 64
0.310208 0.248761 0.058474 55 67 78
0.315164 0.248761 0.060456 44 59 73
0.323092 0.248761 0.065411 47 58 74
0.324083 0.248761 0.116947 46 65 86
0.327056 0.248761 0.113974 48 66 83
0.329039 0.248761 0.073340 47 64 76
0.330030 0.248761 0.077304 51 69 78
0.332012 0.248761 0.083251 49 67 81
0.333003 0.248761 0.102081 37 56 75
0.333003 0.248761 0.098117 33 57 75
0.333003 0.248761 0.090188 36 62 78
0.086224 0.249752 0.061447 27 44 62
0.088206 0.249752 0.049554 29 46 64
0.091179 0.249752 0.040634 25 43 61
0.097126 0.249752 0.035679 29 47 63
0.100099 0.249752 0.094153 53 66 77
0.100099 0.249752 0.033697 33 49 64
0.103072 0.249752 0.097126 61 75 83
0.110010 0.249752 0.027750 46 63 73
0.116947 0.249752 0.026759 44 60 71
0.121903 0.249752 0.025768 50 64 76
0.131814 0.249752 0.105055 77 90 98
0.138751 0.249752 0.103072 65 80 89
0.139742 0.249752 0.032706 52 65 75
0.142716 0.249752 0.034688 53 65 76
0.151635 0.249752 0.041625 48 61 72
0.154609 0.249752 0.074331 35 52 69
0.154609 0.249752 0.046581 35 51 65
0.156591 0.249752 0.070367 33 51 65
0.156591 0.249752 0.052527 35 51 66
0.157582 0.249752 0.065411 29 45 60
0.158573 0.249752 0.061447 27 47 62
0.264618 0.249752 0.091179 26 41 54
0.264618 0.249752 0.087215 16 35 51
0.267592 0.249752 0.078295 24 38 55
0.275520 0.249752 0.068385 19 36 55
0.277502 0.249752 0.132805 71 82 90
0.282458 0.249752 0.134787 76 86 95
0.283449 0.249752 0.063429 24 42 58
0.295342 0.249752 0.136769 89 101 109
0.298315 0.249752 0.057483 38 56 68
0.305253 0.249752 0.058474 53 65 76
0.308226 0.249752 0.131814 72 87 98
0.312190 0.249752 0.129832 63 80 95
0.314172 0.249752 0.126858 53 76 89
0.317146 0.249752 0.123885 50 70 86
0.318137 0.249752 0.063429 49 63 74
0.326065 0.249752 0.068385 43 61 72
0.329039 0.249752 0.110010 37 55 76
0.085233 0.250743 0.058474 26 43 61
0.087215 0.250743 0.065411 22 40 59
0.089197 0.250743 0.046581 24 41 61
0.093162 0.250743 0.083251 34 50 65
0.104063 0.250743 0.028741 38 53 67
0.106046 0.250743 0.099108 63 76 85
0.115956 0.250743 0.104063 83 93 99
0.124876 0.250743 0.106046 85 96 103
0.124876 0.250743 0.026759 48 63 74
0.132805 0.250743 0.029732 51 65 75
0.141724 0.250743 0.101090 58 71 85
0.145689 0.250743 0.096135 49 64 79
0.145689 0.250743 0.037661 49 62 72
0.147671 0.250743 0.093162 39 56 71
0.149653 0.250743 0.089197 29 51 69
0.153617 0.250743 0.080278 30 48 66
0.158573 0.250743 0.057483 27 45 63
0.263627 0.250743 0.106046 17 35 50
0.263627 0.250743 0.102081 25 42 55
0.264618 0.250743 0.111992 24 37 57
0.264618 0.250743 0.083251 26 39 53
0.266601 0.250743 0.118930 28 47 62
0.268583 0.250743 0.075322 23 41 55
0.271556 0.250743 0.126858 43 57 69
0.273538 0.250743 0.129832 54 67 75
0.278494 0.250743 0.066402 24 43 58
0.285431 0.250743 0.135778 81 91 98
0.286422 0.250743 0.061447 22 39 58
0.298315 0.250743 0.137760 89 100 108
0.301288 0.250743 0.058474 57 69 80
0.303271 0.250743 0.134787 82 95 105
0.313181 0.250743 0.058474 49 63 74
0.320119 0.250743 0.121903 44 64 84
0.322101 0.250743 0.118930 45 66 83
0.330030 0.250743 0.107037 44 63 83
0.331021 0.250743 0.080278 49 68 81
0.332012 0.250743 0.095144 33 58 75
0.333003 0.250743 0.086224 47 69 84
0.086224 0.251734 0.055500 27 44 63
0.087215 0.251734 0.070367 24 43 59
0.088206 0.251734 0.076313 35 56 70
0.090188 0.251734 0.080278 31 49 60
0.090188 0.251734 0.043608 26 44 62
0.093162 0.251734 0.038652 26 43 63
0.095144 0.251734 0.088206 34 51 62
0.097126 0.251734 0.091179 37 54 66
0.103072 0.251734 0.031715 36 53 69
0.110010 0.251734 0.102081 76 86 95
0.112983 0.251734 0.028741 48 60 73
0.118930 0.251734 0.105055 82 92 100
0.127849 0.251734 0.028741 51 64 76
0.128840 0.251734 0.106046 84 94 102
0.134787 0.251734 0.105055 76 87 97
0.135778 0.251734 0.031715 49 64 75
0.150644 0.251734 0.086224 32 52 70
0.152626 0.251734 0.083251 37 54 70
0.152626 0.251734 0.044599 44 57 70
0.154609 0.251734 0.077304 25 44 61
0.155600 0.251734 0.049554 36 52 64
0.158573 0.251734 0.068385 28 47 63
0.263627 0.251734 0.098117 23 37 54
0.263627 0.251734 0.094153 21 36 52
0.265610 0.251734 0.080278 23 41 54
0.268583 0.251734 0.122894 32 51 64
0.270565 0.251734 0.072349 20 40 55
0.279485 0.251734 0.134787 72 84 92
0.288404 0.251734 0.136769 87 98 105
0.289395 0.251734 0.060456 26 45 62
0.292369 0.251734 0.058474 31 46 61
0.306244 0.251734 0.133796 76 90 101
0.308226 0.251734 0.058474 52 66 76
0.316155 0.251734 0.061447 53 69 78
0.320119 0.251734 0.065411 53 65 77
0.323092 0.251734 0.067393 49 62 74
0.325074 0.251734 0.115956 41 63 83
0.327056 0.251734 0.111992 39 58 80
0.328048 0.251734 0.072349 50 66 78
0.330030 0.251734 0.075322 50 64 79
0.331021 0.251734 0.104063 32 56 75
0.332012 0.251734 0.100099 32 55 75
0.332012 0.251734 0.091179 42 62 80
0.087215 0.252725 0.062438 25 43 60
0.088206 0.252725 0.052527 25 42 60
0.096135 0.252725 0.037661 30 49 66
0.098117 0.252725 0.034688 25 42 60
0.101090 0.252725 0.095144 56 68 80
0.107037 0.252725 0.029732 37 55 70
0.112983 0.252725 0.103072 79 88 97
0.115956 0.252725 0.027750 45 59 72
0.119921 0.252725 0.026759 49 62 75
0.121903 0.252725 0.106046 83 93 100
0.137760 0.252725 0.104063 68 81 90
0.140733 0.252725 0.033697 54 67 78
0.143707 0.252725 0.099108 58 72 86
0.143707 0.252725 0.035679 55 65 75
0.147671 0.252725 0.039643 52 65 75
0.155600 0.252725 0.073340 36 54 69
0.157582 0.252725 0.053518 28 46 58
0.158573 0.252725 0.064420 25 45 60
0.159564 0.252725 0.060456 23 41 59
0.262636 0.252725 0.088206 17 35 54
0.263627 0.252725 0.109019 19 37 55
0.264618 0.252725 0.115956 18 36 52
0.266601 0.252725 0.077304 20 38 52
0.273538 0.252725 0.070367 18 36 53
0.275520 0.252725 0.132805 65 78 85
0.280476 0.252725 0.064420 25 43 59
0.292369 0.252725 0.136769 94 104 111
0.295342 0.252725 0.057483 33 50 65
0.300297 0.252725 0.135778 89 99 109
0.309217 0.252725 0.130823 66 83 96
0.312190 0.252725 0.127849 60 77 93
0.315164 0.252725 0.125867 49 69 85
0.327056 0.252725 0.069376 44 60 70
0.328048 0.252725 0.109019 36 55 76
0.331021 0.252725 0.084242 39 62 77
0.086224 0.253717 0.059465 28 45 62
0.087215 0.253717 0.067393 22 42 59
0.088206 0.253717 0.073340 29 45 63
0.089197 0.253717 0.049554 26 48 64
0.092170 0.253717 0.082260 31 47 62
0.092170 0.253717 0.041625 27 48 64
0.094153 0.253717 0.085233 35 50 64
0.101090 0.253717 0.033697 33 48 65
0.104063 0.253717 0.098117 63 75 85
0.107037 0.253717 0.100099 66 77 87
0.110010 0.253717 0.028741 41 58 72
0.122894 0.253717 0.027750 49 63 75
0.125867 0.253717 0.107037 90 100 108
0.130823 0.253717 0.029732 53 66 78
0.131814 0.253717 0.106046 81 91 100
0.140733 0.253717 0.103072 58 75 85
0.146680 0.253717 0.095144 42 60 76
0.148662 0.253717 0.092170 37 56 70
0.150644 0.253717 0.041625 48 61 72
0.154609 0.253717 0.046581 40 55 66
0.159564 0.253717 0.056492 31 50 63
0.262636 0.253717 0.105055 21 38 54
0.262636 0.253717 0.101090 19 37 54
0.263627 0.253717 0.112983 17 33 50
0.263627 0.253717 0.091179 22 34 51
0.263627 0.253717 0.085233 25 39 53
0.266601 0.253717 0.120912 32 47 63
0.267592 0.253717 0.074331 23 38 57
0.270565 0.253717 0.125867 42 56 66
0.272547 0.253717 0.128840 50 63 72
0.275520 0.253717 0.067393 23 40 56
0.282458 0.253717 0.135778 76 88 95
0.283449 0.253717 0.063429 25 44 61
0.295342 0.253717 0.137760 91 103 110
0.298315 0.253717 0.058474 45 58 70
0.303271 0.253717 0.058474 52 65 75
0.311199 0.253717 0.058474 51 64 75
0.317146 0.253717 0.122894 49 70 84
0.318137 0.253717 0.063429 54 67 77
0.320119 0.253717 0.119921 45 68 84
0.323092 0.253717 0.117939 44 66 83
0.329039 0.253717 0.106046 43 68 83
0.330030 0.253717 0.079286 54 72 83
0.332012 0.253717 0.097126 32 55 75
0.332012 0.253717 0.088206 43 63 82
0.087215 0.254708 0.056492 27 42 61
0.089197 0.254708 0.078295 29 45 59
0.090188 0.254708 0.046581 25 44 62
0.096135 0.254708 0.090188 36 53 63
0.099108 0.254708 0.093162 42 58 71
0.104063 0.254708 0.030723 35 51 65
0.115956 0.254708 0.104063 80 90 98
0.125867 0.254708 0.028741 51 63 74
0.133796 0.254708 0.030723 47 61 72
0.135778 0.254708 0.106046 72 85 91
0.137760 0.254708 0.032706 51 65 75
0.145689 0.254708 0.037661 52 65 75
0.149653 0.254708 0.089197 38 56 72
0.151635 0.254708 0.085233 36 54 68
0.153617 0.254708 0.082260 29 47 63
0.155600 0.254708 0.078295 30 50 65
0.156591 0.254708 0.050545 38 53 65
0.157582 0.254708 0.071358 30 49 64
0.159564 0.254708 0.067393 35 49 65
0.262636 0.254708 0.097126 21 36 52
0.264618 0.254708 0.082260 23 37 55
0.278494 0.254708 0.133796 74 85 93
0.278494 0.254708 0.066402 24 41 60
0.285431 0.254708 0.136769 86 96 104
0.286422 0.254708 0.061447 28 50 64
0.290387 0.254708 0.059465 33 53 65
0.303271 0.254708 0.134787 77 93 102
0.306244 0.254708 0.059465 54 67 76
0.307235 0.254708 0.132805 69 85 97
0.314172 0.254708 0.061447 53 67 76
0.321110 0.254708 0.066402 52 65 76
0.324083 0.254708 0.114965 45 66 83
0.324083 0.254708 0.068385 48 62 76
0.326065 0.254708 0.111001 36 57 80
0.328048 0.254708 0.074331 51 64 78
0.330030 0.254708 0.103072 36 55 74
0.332012 0.254708 0.093162 40 60 77
0.086224 0.255699 0.063429 21 41 60
0.087215 0.255699 0.070367 24 45 60
0.094153 0.255699 0.039643 26 45 62
0.097126 0.255699 0.036670 30 49 66
0.102081 0.255699 0.096135 52 68 78
0.108028 0.255699 0.030723 30 48 64
0.109019 0.255699 0.102081 69 80 88
0.112983 0.255699 0.029732 40 58 71
0.116947 0.255699 0.028741 43 59 71
0.118930 0.255699 0.106046 83 92 99
0.122894 0.255699 0.107037 83 94 102
0.128840 0.255699 0.107037 85 96 103
0.141724 0.255699 0.034688 54 67 77
0.142716 0.255699 0.101090 59 74 86
0.144698 0.255699 0.098117 52 70 82
0.152626 0.255699 0.044599 46 60 69
0.156591 0.255699 0.075322 33 53 67
0.159564 0.255699 0.063429 29 45 63
0.261645 0.255699 0.094153 21 31 43
0.261645 0.255699 0.089197 16 31 52
0.262636 0.255699 0.110010 17 35 53
0.263627 0.255699 0.116947 27 41 58
0.264618 0.255699 0.078295 22 35 56
0.267592 0.255699 0.123885 33 51 63
0.269574 0.255699 0.072349 20 37 54
0.272547 0.255699 0.069376 22 39 56
0.273538 0.255699 0.131814 58 70 77
0.289395 0.255699 0.136769 92 102 110
0.293360 0.255699 0.058474 46 60 72
0.298315 0.255699 0.137760 89 100 108
0.310208 0.255699 0.129832 57 75 91
0.313181 0.255699 0.126858 48 70 86
0.327056 0.255699 0.071358 52 66 77
0.330030 0.255699 0.082260 49 68 82
0.331021 0.255699 0.100099 32 54 76
0.332012 0.255699 0.085233 47 64 80
0.087215 0.256690 0.060456 26 44 62
0.088206 0.256690 0.075322 28 47 60
0.088206 0.256690 0.053518 25 44 61
0.090188 0.256690 0.050545 34 50 66
0.091179 0.256690 0.081269 31 49 60
0.091179 0.256690 0.043608 28 50 64
0.093162 0.256690 0.084242 25 43 59
0.095144 0.256690 0.087215 36 52 67
0.100099 0.256690 0.035679 33 50 66
0.102081 0.256690 0.032706 32 50 66
0.105055 0.256690 0.099108 63 74 85
0.111992 0.256690 0.103072 73 84 92
0.119921 0.256690 0.027750 46 63 73
0.128840 0.256690 0.029732 48 62 74
0.132805 0.256690 0.107037 80 90 99
0.137760 0.256690 0.104063 65 81 91
0.147671 0.256690 0.094153 42 61 75
0.147671 0.256690 0.039643 52 65 75
0.154609 0.256690 0.048563 39 53 65
0.157582 0.256690 0.053518 35 50 64
0.159564 0.256690 0.059465 27 46 62
0.261645 0.256690 0.107037 17 38 55
0.261645 0.256690 0.103072 22 39 54
0.261645 0.256690 0.085233 29 43 59
0.262636 0.256690 0.113974 18 34 52
0.264618 0.256690 0.119921 29 48 61
0.265610 0.256690 0.075322 20 36 54
0.269574 0.256690 0.126858 38 55 66
0.280476 0.256690 0.135778 78 88 96
0.280476 0.256690 0.064420 26 44 61
0.292369 0.256690 0.137760 94 104 112
0.300297 0.256690 0.058474 51 64 76
0.309217 0.256690 0.059465 54 65 78
0.316155 0.256690 0.124876 50 69 85
0.316155 0.256690 0.063429 55 68 78
0.318137 0.256690 0.121903 48 68 85
0.321110 0.256690 0.118930 48 67 85
0.327056 0.256690 0.108028 43 64 80
0.329039 0.256690 0.078295 53 69 82
0.331021 0.256690 0.096135 36 54 76
0.331021 0.256690 0.090188 41 62 79
0.087215 0.257681 0.067393 21 38 57
0.091179 0.257681 0.047572 31 49 63
0.097126 0.257681 0.092170 35 53 65
0.100099 0.257681 0.094153 47 61 73
0.105055 0.257681 0.031715 32 52 66
0.123885 0.257681 0.028741 49 63 74
0.125867 0.257681 0.107037 85 96 104
0.131814 0.257681 0.030723 54 68 77
0.135778 0.257681 0.032706 47 62 74
0.139742 0.257681 0.032706 55 67 76
0.140733 0.257681 0.103072 60 73 85
0.143707 0.257681 0.036670 52 66 76
0.149653 0.257681 0.091179 34 54 70
0.150644 0.257681 0.042616 50 63 73
0.151635 0.257681 0.088206 31 51 67
0.152626 0.257681 0.084242 33 52 65
0.154609 0.257681 0.081269 33 52 67
0.158573 0.257681 0.073340 36 54 68
0.159564 0.257681 0.069376 31 50 63
0.160555 0.257681 0.056492 35 49 59
0.261645 0.257681 0.099108 25 40 55
0.262636 0.257681 0.082260 28 41 58
0.271556 0.257681 0.129832 56 67 75
0.274529 0.257681 0.067393 22 39 54
0.275520 0.257681 0.133796 71 82 90
0.277502 0.257681 0.065411 24 43 58
0.283449 0.257681 0.136769 83 94 102
0.283449 0.257681 0.063429 24 40 56
0.287413 0.257681 0.060456 32 49 63
0.295342 0.257681 0.138751 91 101 110
0.296333 0.257681 0.058474 43 57 70
0.300297 0.257681 0.135778 77 89 101
0.303271 0.257681 0.059465 51 63 75
0.304262 0.257681 0.133796 74 88 99
0.308226 0.257681 0.131814 64 82 95
0.312190 0.257681 0.061447 53 65 76
0.319128 0.257681 0.065411 51 65 76
0.322101 0.257681 0.067393 50 64 74
0.323092 0.257681 0.115956 46 67 85
0.325074 0.257681 0.112983 43 60 78
0.325074 0.257681 0.069376 42 58 71
0.329039 0.257681 0.105055 34 55 77
0.087215 0.258672 0.057483 30 50 62
0.088206 0.258672 0.072349 27 46 60
0.089197 0.258672 0.078295 31 48 63
0.093162 0.258672 0.041625 28 45 63
0.096135 0.258672 0.039643 28 46 63
0.103072 0.258672 0.097126 58 73 82
0.107037 0.258672 0.101090 66 77 87
0.109019 0.258672 0.029732 39 57 70
0.113974 0.258672 0.028741 40 57 70
0.114965 0.258672 0.104063 78 87 96
0.120912 0.258672 0.107037 84 95 102
0.135778 0.258672 0.107037 74 86 96
0.143707 0.258672 0.100099 58 72 85
0.145689 0.258672 0.097126 48 62 79
0.153617 0.258672 0.045590 48 62 71
0.155600 0.258672 0.078295 30 50 65
0.156591 0.258672 0.050545 40 54 67
0.159564 0.258672 0.065411 26 46 63
0.260654 0.258672 0.096135 18 34 49
0.260654 0.258672 0.092170 22 39 53
0.260654 0.258672 0.088206 18 34 51
0.261645 0.258672 0.111001 20 40 55
0.262636 0.258672 0.117939 35 50 63
0.263627 0.258672 0.079286 23 40 54
0.265610 0.258672 0.122894 33 49 63
0.267592 0.258672 0.073340 25 43 57
0.270565 0.258672 0.071358 24 40 56
0.287413 0.258672 0.136769 91 102 109
0.290387 0.258672 0.059465 34 49 63
0.311199 0.258672 0.128840 59 75 89
0.326065 0.258672 0.072349 52 65 77
0.328048 0.258672 0.075322 48 64 77
0.329039 0.258672 0.101090 37 57 77
0.330030 0.258672 0.084242 40 63 76
0.331021 0.258672 0.093162 34 58 75
0.332012 0.258672 0.087215 48 69 84
0.086224 0.259663 0.061447 24 41 62
0.089197 0.259663 0.054509 26 46 59
0.092170 0.259663 0.083251 30 47 63
0.092170 0.259663 0.044599 26 46 64
0.094153 0.259663 0.086224 31 48 61
0.096135 0.259663 0.089197 34 50 65
0.098117 0.259663 0.036670 31 52 65
0.101090 0.259663 0.034688 33 53 67
0.110010 0.259663 0.103072 70 80 90
0.116947 0.259663 0.029732 44 60 72
0.117939 0.259663 0.106046 82 90 99
0.120912 0.259663 0.028741 43 62 72
0.126858 0.259663 0.029732 52 65 77
0.128840 0.259663 0.108028 87 95 104
0.138751 0.259663 0.105055 70 82 93
0.141724 0.259663 0.034688 51 66 75
0.145689 0.259663 0.038652 53 65 75
0.148662 0.259663 0.095144 39 59 72
0.148662 0.259663 0.040634 53 66 75
0.158573 0.259663 0.054509 36 51 64
0.159564 0.259663 0.061447 21 39 59
0.260654 0.259663 0.108028 21 39 56
0.260654 0.259663 0.104063 22 36 54
0.261645 0.259663 0.114965 24 42 57
0.264618 0.259663 0.076313 25 40 55
0.267592 0.259663 0.126858 41 55 68
0.272547 0.259663 0.132805 61 71 79
0.278494 0.259663 0.135778 79 89 97
0.290387 0.259663 0.137760 94 104 112
0.293360 0.259663 0.058474 39 54 68
0.298315 0.259663 0.137760 86 96 106
0.299306 0.259663 0.059465 53 66 76
0.306244 0.259663 0.059465 53 67 76
0.313181 0.259663 0.125867 53 75 89
0.315164 0.259663 0.062438 55 68 79
0.316155 0.259663 0.122894 48 67 85
0.319128 0.259663 0.120912 49 70 85
0.325074 0.259663 0.110010 29 53 71
0.329039 0.259663 0.081269 55 67 80
0.330030 0.259663 0.098117 37 57 78
0.087215 0.260654 0.065411 26 46 62
0.088206 0.260654 0.075322 27 43 58
0.088206 0.260654 0.069376 28 46 62
0.090188 0.260654 0.051536 28 48 63
0.091179 0.260654 0.080278 33 46 62
0.098117 0.260654 0.093162 37 54 67
0.101090 0.260654 0.095144 45 60 74
0.104063 0.260654 0.032706 37 56 70
0.105055 0.260654 0.099108 59 70 83
0.111992 0.260654 0.030723 42 58 73
0.123885 0.260654 0.108028 83 93 100
0.129832 0.260654 0.030723 52 64 77
0.131814 0.260654 0.107037 84 94 101
0.133796 0.260654 0.031715 49 64 75
0.137760 0.260654 0.033697 50 63 74
0.141724 0.260654 0.104063 57 74 86
0.150644 0.260654 0.092170 32 55 71
0.152626 0.260654 0.087215 36 54 69
0.152626 0.260654 0.042616 45 61 70
0.154609 0.260654 0.084242 34 51 69
0.155600 0.260654 0.047572 40 56 67
0.157582 0.260654 0.076313 41 57 73
0.159564 0.260654 0.072349 25 43 59
0.160555 0.260654 0.068385 33 48 63
0.160555 0.260654 0.058474 31 48 62
0.260654 0.260654 0.100099 22 37 53
0.260654 0.260654 0.085233 25 42 56
0.261645 0.260654 0.081269 25 38 56
0.263627 0.260654 0.120912 27 46 60
0.269574 0.260654 0.129832 49 63 73
0.272547 0.260654 0.069376 26 41 58
0.275520 0.260654 0.066402 19 34 55
0.278494 0.260654 0.064420 21 40 57
0.281467 0.260654 0.136769 83 93 102
0.282458 0.260654 0.064420 22 40 57
0.285431 0.260654 0.062438 34 52 63
0.293360 0.260654 0.138751 91 102 110
0.301288 0.260654 0.134787 72 87 98
0.305253 0.260654 0.132805 69 84 96
0.309217 0.260654 0.130823 57 75 89
0.309217 0.260654 0.060456 53 67 76
0.318137 0.260654 0.064420 52 65 75
0.321110 0.260654 0.117939 44 65 83
0.321110 0.260654 0.066402 49 63 74
0.323092 0.260654 0.113974 43 64 79
0.324083 0.260654 0.068385 48 62 75
0.327056 0.260654 0.107037 47 64 84
0.328048 0.260654 0.078295 51 67 80
0.331021 0.260654 0.090188 46 65 82
0.088206 0.261645 0.058474 26 45 60
0.091179 0.261645 0.048563 31 48 64
0.094153 0.261645 0.040634 26 52 64
0.107037 0.261645 0.031715 41 55 69
0.112983 0.261645 0.104063 67 80 89
0.123885 0.261645 0.028741 49 64 75
0.134787 0.261645 0.108028 78 89 97
0.143707 0.261645 0.036670 53 66 75
0.144698 0.261645 0.101090 54 69 82
0.146680 0.261645 0.098117 44 61 77
0.155600 0.261645 0.081269 28 48 65
0.157582 0.261645 0.051536 39 52 66
0.160555 0.261645 0.064420 27 44 61
0.259663 0.261645 0.097126 22 37 53
0.259663 0.261645 0.093162 31 45 58
0.259663 0.261645 0.089197 22 36 52
0.260654 0.261645 0.111992 21 40 55
0.262636 0.261645 0.078295 22 37 55
0.264618 0.261645 0.123885 30 47 61
0.266601 0.261645 0.074331 26 45 56
0.269574 0.261645 0.072349 28 43 57
0.274529 0.261645 0.134787 77 86 93
0.285431 0.261645 0.137760 88 99 105
0.288404 0.261645 0.060456 31 50 65
0.296333 0.261645 0.059465 50 63 74
0.302279 0.261645 0.059465 56 69 77
0.312190 0.261645 0.062438 52 66 76
0.325074 0.261645 0.071358 56 70 81
0.327056 0.261645 0.074331 53 66 79
0.328048 0.261645 0.104063 31 55 74
0.330030 0.261645 0.095144 35 56 74
0.331021 0.261645 0.086224 46 65 81
0.087215 0.262636 0.062438 23 43 59
0.088206 0.262636 0.072349 27 42 62
0.089197 0.262636 0.078295 43 62 74
0.093162 0.262636 0.085233 28 44 60
0.095144 0.262636 0.090188 34 52 63
0.097126 0.262636 0.039643 31 48 65
0.100099 0.262636 0.036670 29 44 61
0.103072 0.262636 0.097126 49 65 75
0.107037 0.262636 0.101090 64 76 86
0.114965 0.262636 0.029732 47 63 73
0.115956 0.262636 0.105055 75 84 94
0.118930 0.262636 0.029732 47 61 73
0.119921 0.262636 0.107037 81 91 98
0.126858 0.262636 0.108028 83 94 101
0.137760 0.262636 0.107037 72 85 94
0.146680 0.262636 0.039643 56 67 77
0.149653 0.262636 0.041625 53 67 76
0.153617 0.262636 0.045590 45 57 69
0.159564 0.262636 0.055500 33 50 63
0.161546 0.262636 0.061447 27 43 62
0.259663 0.262636 0.109019 18 37 53
0.259663 0.262636 0.105055 21 35 54
0.260654 0.262636 0.116947 26 43 58
0.270565 0.262636 0.132805 60 71 80
0.291378 0.262636 0.059465 37 55 67
0.296333 0.262636 0.138751 88 100 109
0.299306 0.262636 0.136769 77 91 101
0.305253 0.262636 0.060456 53 67 77
0.311199 0.262636 0.128840 52 73 87
0.314172 0.262636 0.124876 53 71 89
0.315164 0.262636 0.064420 54 68 78
0.317146 0.262636 0.121903 43 67 83
0.324083 0.262636 0.111001 33 54 76
0.328048 0.262636 0.100099 28 53 73
0.329039 0.262636 0.083251 53 73 85
0.088206 0.263627 0.067393 28 44 61
0.088206 0.263627 0.055500 23 43 61
0.091179 0.263627 0.082260 30 44 60
0.091179 0.263627 0.045590 29 48 63
0.099108 0.263627 0.095144 38 57 68
0.103072 0.263627 0.034688 28 48 64
0.110010 0.263627 0.103072 66 79 86
0.110010 0.263627 0.031715 37 53 67
0.126858 0.263627 0.030723 51 64 75
0.129832 0.263627 0.109019 89 99 107
0.130823 0.263627 0.031715 54 67 78
0.134787 0.263627 0.032706 53 65 76
0.138751 0.263627 0.034688 53 66 76
0.140733 0.263627 0.106046 61 76 86
0.142716 0.263627 0.103072 61 77 87
0.148662 0.263627 0.096135 45 63 74
0.151635 0.263627 0.091179 32 53 67
0.153617 0.263627 0.088206 31 51 67
0.156591 0.263627 0.048563 41 58 69
0.157582 0.263627 0.079286 32 49 68
0.158573 0.263627 0.075322 28 46 60
0.160555 0.263627 0.071358 36 51 69
0.161546 0.263627 0.067393 25 43 60
0.259663 0.263627 0.101090 24 39 54
0.259663 0.263627 0.086224 28 40 56
0.260654 0.263627 0.082260 24 40 54
0.261645 0.263627 0.120912 31 50 64
0.263627 0.263627 0.075322 20 37 52
0.265610 0.263627 0.126858 37 55 67
0.268583 0.263627 0.128840 46 59 70
0.270565 0.263627 0.069376 19 38 55
0.273538 0.263627 0.067393 27 43 58
0.276511 0.263627 0.065411 22 43 59
0.277502 0.263627 0.135778 77 88 96
0.280476 0.263627 0.064420 28 47 62
0.283449 0.263627 0.062438 29 46 62
0.288404 0.263627 0.137760 95 105 111
0.292369 0.263627 0.137760 86 97 105
0.299306 0.263627 0.060456 54 67 76
0.303271 0.263627 0.134787 71 86 97
0.306244 0.263627 0.131814 67 85 94
0.318137 0.263627 0.066402 54 68 78
0.319128 0.263627 0.118930 42 61 82
0.321110 0.263627 0.115956 50 66 82
0.321110 0.263627 0.068385 51 65 77
0.325074 0.263627 0.108028 59 79 93
0.327056 0.263627 0.077304 55 70 81
0.330030 0.263627 0.092170 39 60 77
0.087215 0.264618 0.059465 28 45 63
0.089197 0.264618 0.075322 25 42 59
0.090188 0.264618 0.052527 27 45 61
0.092170 0.264618 0.042616 29 47 63
0.097126 0.264618 0.092170 32 50 63
0.105055 0.264618 0.099108 61 72 83
0.105055 0.264618 0.031715 35 54 66
0.121903 0.264618 0.029732 42 62 73
0.122894 0.264618 0.108028 81 90 99
0.132805 0.264618 0.108028 84 93 102
0.141724 0.264618 0.035679 54 68 77
0.144698 0.264618 0.037661 52 66 75
0.145689 0.264618 0.100099 51 69 80
0.151635 0.264618 0.043608 47 60 71
0.154609 0.264618 0.085233 23 46 61
0.156591 0.264618 0.082260 22 41 59
0.158573 0.264618 0.052527 37 51 63
0.160555 0.264618 0.058474 35 48 61
0.257681 0.264618 0.092170 22 36 52
0.258672 0.264618 0.098117 23 39 55
0.259663 0.264618 0.113974 20 37 53
0.261645 0.264618 0.079286 19 35 52
0.267592 0.264618 0.073340 23 41 57
0.272547 0.264618 0.135778 73 84 91
0.280476 0.264618 0.136769 86 95 103
0.284440 0.264618 0.136769 90 101 106
0.286422 0.264618 0.061447 30 46 62
0.294351 0.264618 0.060456 48 60 75
0.308226 0.264618 0.061447 59 69 81
0.309217 0.264618 0.130823 57 74 89
0.322101 0.264618 0.112983 38 63 81
0.324083 0.264618 0.072349 53 67 79
0.327056 0.264618 0.105055 36 57 78
0.328048 0.264618 0.097126 41 59 79
0.328048 0.264618 0.080278 48 66 80
0.330030 0.264618 0.088206 45 66 80
0.087215 0.265610 0.064420 20 36 56
0.088206 0.265610 0.070367 29 44 64
0.090188 0.265610 0.079286 31 50 64
0.091179 0.265610 0.049554 25 45 59
0.094153 0.265610 0.088206 30 44 61
0.095144 0.265610 0.041625 26 43 61
0.098117 0.265610 0.038652 26 44 63
0.101090 0.265610 0.097126 45 60 72
0.112983 0.265610 0.105055 70 82 90
0.112983 0.265610 0.030723 42 58 72
0.116947 0.265610 0.106046 74 86 94
0.116947 0.265610 0.030723 45 60 72
0.125867 0.265610 0.109019 82 90 100
0.135778 0.265610 0.109019 78 88 97
0.147671 0.265610 0.040634 53 65 76
0.150644 0.265610 0.094153 39 56 72
0.154609 0.265610 0.046581 47 61 72
0.161546 0.265610 0.064420 21 38 57
0.257681 0.265610 0.088206 24 39 54
0.258672 0.265610 0.111001 20 38 54
0.258672 0.265610 0.107037 19 36 53
0.259663 0.265610 0.117939 33 49 62
0.262636 0.265610 0.123885 31 49 62
0.268583 0.265610 0.131814 54 67 76
0.289395 0.265610 0.060456 31 48 63
0.294351 0.265610 0.139742 90 100 110
0.297324 0.265610 0.137760 82 94 104
0.300297 0.265610 0.135778 78 93 102
0.302279 0.265610 0.060456 57 69 78
0.310208 0.265610 0.127849 53 71 87
0.311199 0.265610 0.063429 56 69 78
0.313181 0.265610 0.125867 51 69 85
0.314172 0.265610 0.065411 53 66 76
0.315164 0.265610 0.122894 46 70 86
0.325074 0.265610 0.075322 51 66 78
0.327056 0.265610 0.101090 33 53 73
0.329039 0.265610 0.085233 41 60 77
0.089197 0.266601 0.057483 23 39 60
0.092170 0.266601 0.084242 28 43 60
0.092170 0.266601 0.046581 34 51 65
0.101090 0.266601 0.036670 32 49 65
0.107037 0.266601 0.101090 59 71 83
0.108028 0.266601 0.032706 34 54 67
0.119921 0.266601 0.107037 76 87 94
0.124876 0.266601 0.029732 47 63 74
0.128840 0.266601 0.031715 55 67 77
0.132805 0.266601 0.032706 56 67 78
0.136769 0.266601 0.033697 53 66 76
0.138751 0.266601 0.108028 77 88 98
0.141724 0.266601 0.105055 63 76 86
0.144698 0.266601 0.103072 58 73 85
0.147671 0.266601 0.098117 46 62 78
0.152626 0.266601 0.090188 28 45 63
0.156591 0.266601 0.050545 40 54 64
0.158573 0.266601 0.078295 28 45 63
0.159564 0.266601 0.074331 30 48 62
0.159564 0.266601 0.055500 30 46 60
0.161546 0.266601 0.070367 23 38 57
0.257681 0.266601 0.102081 25 40 56
0.257681 0.266601 0.095144 26 40 52
0.258672 0.266601 0.085233 24 39 55
0.259663 0.266601 0.081269 22 38 54
0.261645 0.266601 0.076313 23 41 57
0.264618 0.266601 0.074331 19 37 52
0.265610 0.266601 0.128840 39 54 67
0.268583 0.266601 0.070367 18 37 54
0.271556 0.266601 0.068385 25 42 60
0.274529 0.266601 0.066402 25 42 59
0.275520 0.266601 0.135778 77 88 95
0.278494 0.266601 0.065411 25 43 59
0.281467 0.266601 0.063429 21 38 58
0.287413 0.266601 0.138751 94 105 111
0.291378 0.266601 0.138751 92 103 110
0.297324 0.266601 0.060456 51 66 76
0.304262 0.266601 0.133796 72 87 99
0.305253 0.266601 0.061447 52 66 76
0.317146 0.266601 0.067393 55 69 79
0.318137 0.266601 0.120912 40 67 80
0.320119 0.266601 0.117939 42 64 79
0.320119 0.266601 0.069376 54 65 76
0.323092 0.266601 0.110010 58 75 91
0.326065 0.266601 0.078295 48 67 78
0.328048 0.266601 0.094153 46 65 81
0.087215 0.267592 0.061447 23 41 58
0.088206 0.267592 0.067393 28 45 62
0.089197 0.267592 0.073340 27 42 59
0.090188 0.267592 0.054509 27 45 61
0.093162 0.267592 0.043608 32 50 65
0.096135 0.267592 0.091179 31 46 61
0.098117 0.267592 0.095144 36 52 66
0.103072 0.267592 0.099108 49 63 76
0.104063 0.267592 0.034688 32 50 67
0.110010 0.267592 0.104063 63 77 87
0.119921 0.267592 0.030723 42 58 70
0.128840 0.267592 0.109019 81 92 102
0.132805 0.267592 0.110010 82 93 100
0.139742 0.267592 0.035679 56 69 78
0.143707 0.267592 0.036670 47 62 73
0.150644 0.267592 0.042616 51 66 75
0.154609 0.267592 0.087215 20 42 58
0.156591 0.267592 0.084242 26 47 61
0.161546 0.267592 0.061447 25 43 60
0.256690 0.267592 0.091179 30 46 55
0.258672 0.267592 0.114965 22 40 55
0.260654 0.267592 0.121903 28 45 59
0.264618 0.267592 0.125867 31 49 61
0.269574 0.267592 0.134787 62 73 81
0.278494 0.267592 0.136769 86 96 103
0.282458 0.267592 0.137760 90 101 107
0.284440 0.267592 0.062438 30 48 64
0.292369 0.267592 0.060456 41 57 68
0.307235 0.267592 0.131814 57 78 91
0.321110 0.267592 0.114965 39 55 78
0.323092 0.267592 0.073340 47 62 76
0.325074 0.267592 0.107037 39 59 80
0.327056 0.267592 0.098117 34 57 77
0.327056 0.267592 0.082260 46 64 76
0.329039 0.267592 0.091179 44 63 80
0.089197 0.268583 0.078295 41 57 74
0.091179 0.268583 0.081269 33 48 62
0.091179 0.268583 0.051536 28 45 61
0.094153 0.268583 0.086224 24 45 58
0.096135 0.268583 0.040634 28 47 65
0.111001 0.268583 0.031715 34 54 66
0.114965 0.268583 0.106046 68 79 89
0.114965 0.268583 0.031715 43 62 73
0.122894 0.268583 0.108028 78 89 96
0.145689 0.268583 0.039643 52 65 76
0.146680 0.268583 0.101090 52 67 80
0.149653 0.268583 0.096135 38 56 72
0.151635 0.268583 0.093162 28 48 65
0.153617 0.268583 0.044599 48 60 71
0.155600 0.268583 0.047572 48 59 71
0.157582 0.268583 0.081269 28 45 63
0.158573 0.268583 0.052527 36 53 65
0.161546 0.268583 0.067393 21 37 56
0.161546 0.268583 0.057483 28 45 58
0.256690 0.268583 0.099108 25 38 55
0.257681 0.268583 0.111992 19 37 54
0.257681 0.268583 0.108028 21 38 56
0.258672 0.268583 0.118930 24 41 57
0.261645 0.268583 0.124876 32 49 61
0.266601 0.268583 0.072349 21 36 55
0.267592 0.268583 0.130823 52 66 74
0.272547 0.268583 0.135778 77 87 94
0.287413 0.268583 0.061447 35 51 65
0.295342 0.268583 0.138751 85 96 106
0.298315 0.268583 0.136769 83 95 104
0.300297 0.268583 0.061447 56 68 77
0.301288 0.268583 0.134787 77 91 101
0.308226 0.268583 0.062438 55 67 77
0.309217 0.268583 0.128840 51 70 86
0.311199 0.268583 0.125867 46 67 84
0.312190 0.268583 0.065411 52 65 75
0.314172 0.268583 0.123885 48 70 84
0.324083 0.268583 0.076313 50 64 78
0.326065 0.268583 0.104063 30 53 74
0.329039 0.268583 0.087215 39 59 75
0.088206 0.269574 0.064420 21 39 57
0.089197 0.269574 0.070367 25 42 57
0.089197 0.269574 0.059465 23 42 56
0.091179 0.269574 0.047572 19 41 60
0.099108 0.269574 0.039643 25 42 59
0.100099 0.269574 0.097126 37 55 67
0.106046 0.269574 0.100099 52 69 80
0.106046 0.269574 0.032706 37 53 66
0.117939 0.269574 0.107037 71 84 92
0.122894 0.269574 0.030723 47 65 75
0.125867 0.269574 0.110010 78 89 97
0.126858 0.269574 0.031715 54 66 77
0.130823 0.269574 0.032706 55 67 78
0.134787 0.269574 0.033697 54 68 78
0.135778 0.269574 0.110010 78 89 98
0.139742 0.269574 0.107037 72 85 94
0.143707 0.269574 0.106046 62 77 87
0.148662 0.269574 0.040634 55 68 78
0.159564 0.269574 0.077304 35 51 67
0.161546 0.269574 0.074331 33 49 63
0.256690 0.269574 0.105055 20 37 54
0.256690 0.269574 0.094153 28 42 55
0.256690 0.269574 0.088206 25 41 57
0.257681 0.269574 0.084242 28 43 59
0.259663 0.269574 0.079286 20 37 53
0.262636 0.269574 0.075322 26 42 56
0.269574 0.269574 0.069376 21 38 54
0.272547 0.269574 0.067393 20 38 56
0.275520 0.269574 0.065411 23 39 57
0.279485 0.269574 0.064420 29 47 62
0.285431 0.269574 0.138751 93 105 111
0.289395 0.269574 0.138751 94 105 112
0.295342 0.269574 0.061447 51 63 75
0.315164 0.269574 0.067393 55 67 77
0.316155 0.269574 0.120912 47 68 84
0.318137 0.269574 0.069376 53 65 76
0.319128 0.269574 0.118930 46 66 83
0.321110 0.269574 0.071358 47 62 73
0.322101 0.269574 0.111992 31 53 73
0.325074 0.269574 0.080278 48 64 79
0.327056 0.269574 0.101090 32 53 77
0.089197 0.270565 0.075322 29 42 60
0.090188 0.270565 0.056492 25 40 58
0.092170 0.270565 0.084242 31 47 62
0.092170 0.270565 0.044599 33 48 67
0.094153 0.270565 0.089197 26 45 60
0.097126 0.270565 0.094153 34 51 64
0.101090 0.270565 0.036670 30 51 66
0.109019 0.270565 0.103072 61 74 84
0.111992 0.270565 0.105055 68 80 91
0.117939 0.270565 0.031715 42 60 72
0.129832 0.270565 0.110010 83 92 101
0.137760 0.270565 0.034688 53 68 78
0.141724 0.270565 0.036670 52 66 75
0.144698 0.270565 0.103072 60 74 86
0.148662 0.270565 0.099108 40 56 74
0.153617 0.270565 0.091179 31 44 63
0.155600 0.270565 0.088206 25 43 59
0.157582 0.270565 0.049554 43 56 66
0.160555 0.270565 0.054509 33 47 60
0.161546 0.270565 0.070367 18 33 51
0.161546 0.270565 0.064420 19 36 56
0.162537 0.270565 0.060456 25 44 57
0.257681 0.270565 0.115956 21 39 54
0.257681 0.270565 0.102081 21 38 54
0.259663 0.270565 0.122894 28 48 61
0.263627 0.270565 0.128840 42 56 69
0.267592 0.270565 0.133796 58 71 77
0.275520 0.270565 0.136769 80 91 100
0.279485 0.270565 0.137760 88 98 105
0.282458 0.270565 0.063429 32 51 64
0.290387 0.270565 0.061447 44 59 70
0.292369 0.270565 0.139742 94 106 111
0.303271 0.270565 0.062438 54 66 77
0.304262 0.270565 0.133796 68 83 95
0.306244 0.270565 0.130823 62 76 92
0.320119 0.270565 0.115956 51 71 89
0.322101 0.270565 0.074331 50 66 77
0.324083 0.270565 0.109019 47 66 84
0.326065 0.270565 0.083251 44 64 76
0.327056 0.270565 0.096135 34 61 78
0.328048 0.270565 0.092170 43 63 82
0.088206 0.271556 0.067393 29 45 61
0.090188 0.271556 0.080278 36 52 68
0.090188 0.271556 0.052527 31 48 63
0.095144 0.271556 0.042616 26 46 62
0.102081 0.271556 0.099108 44 64 73
0.104063 0.271556 0.035679 29 50 64
0.109019 0.271556 0.032706 36 55 67
0.112983 0.271556 0.032706 39 56 68
0.120912 0.271556 0.108028 77 87 97
0.132805 0.271556 0.111001 78 91 100
0.138751 0.271556 0.110010 76 88 97
0.144698 0.271556 0.038652 53 66 76
0.147671 0.271556 0.102081 44 63 78
0.150644 0.271556 0.042616 54 65 75
0.151635 0.271556 0.097126 34 54 70
0.154609 0.271556 0.045590 51 64 75
0.156591 0.271556 0.085233 21 41 58
0.158573 0.271556 0.082260 33 49 67
0.255699 0.271556 0.098117 22 39 55
0.255699 0.271556 0.091179 27 43 56
0.256690 0.271556 0.112983 21 36 55
0.256690 0.271556 0.109019 22 38 56
0.257681 0.271556 0.119921 32 48 64
0.260654 0.271556 0.125867 30 48 61
0.264618 0.271556 0.073340 22 40 53
0.267592 0.271556 0.071358 20 38 55
0.269574 0.271556 0.136769 73 84 89
0.282458 0.271556 0.138751 96 105 113
0.285431 0.271556 0.062438 29 48 62
0.296333 0.271556 0.137760 84 95 105
0.298315 0.271556 0.061447 55 68 77
0.299306 0.271556 0.135778 79 93 103
0.307235 0.271556 0.063429 53 65 76
0.310208 0.271556 0.127849 50 71 85
0.310208 0.271556 0.065411 50 65 76
0.312190 0.271556 0.124876 47 70 86
0.323092 0.271556 0.077304 52 66 80
0.325074 0.271556 0.106046 39 61 78
0.328048 0.271556 0.086224 42 60 75
0.088206 0.272547 0.062438 23 41 58
0.089197 0.272547 0.072349 23 41 58
0.091179 0.272547 0.049554 30 48 62
0.094153 0.272547 0.086224 31 48 62
0.096135 0.272547 0.091179 30 47 60
0.098117 0.272547 0.040634 29 45 64
0.099108 0.272547 0.096135 39 55 69
0.105055 0.272547 0.101090 44 65 75
0.114965 0.272547 0.106046 68 79 90
0.120912 0.272547 0.030723 46 61 74
0.123885 0.272547 0.109019 76 86 94
0.124876 0.272547 0.030723 50 64 76
0.128840 0.272547 0.032706 58 69 79
0.132805 0.272547 0.033697 56 69 78
0.141724 0.272547 0.108028 71 83 92
0.147671 0.272547 0.039643 55 69 77
0.152626 0.272547 0.094153 25 45 62
0.158573 0.272547 0.052527 40 56 66
0.159564 0.272547 0.079286 34 51 66
0.160555 0.272547 0.075322 33 53 65
0.161546 0.272547 0.067393 16 31 51
0.161546 0.272547 0.057483 29 44 59
0.255699 0.272547 0.104063 32 48 63
0.257681 0.272547 0.087215 22 43 56
0.258672 0.272547 0.083251 23 41 56
0.259663 0.272547 0.077304 24 41 56
0.265610 0.272547 0.131814 52 64 73
0.270565 0.272547 0.068385 27 44 59
0.272547 0.272547 0.135778 82 92 99
0.273538 0.272547 0.066402 20 42 58
0.277502 0.272547 0.065411 29 46 61
0.287413 0.272547 0.138751 93 104 111
0.293360 0.272547 0.061447 45 61 71
0.313181 0.272547 0.067393 55 67 76
0.315164 0.272547 0.122894 44 64 83
0.316155 0.272547 0.069376 53 67 78
0.317146 0.272547 0.119921 38 62 81
0.319128 0.272547 0.071358 50 64 75
0.322101 0.272547 0.113974 34 57 74
0.324083 0.272547 0.081269 46 66 77
0.326065 0.272547 0.103072 35 59 78
0.327056 0.272547 0.099108 44 60 80
0.329039 0.272547 0.089197 49 70 81
0.089197 0.273538 0.059465 24 42 61
0.090188 0.273538 0.077304 29 43 61
0.092170 0.273538 0.082260 34 51 63
0.092170 0.273538 0.046581 30 49 63
0.100099 0.273538 0.037661 27 47 63
0.106046 0.273538 0.033697 31 52 65
0.108028 0.273538 0.102081 59 74 84
0.111001 0.273538 0.104063 65 79 88
0.115956 0.273538 0.032706 42 58 71
0.117939 0.273538 0.107037 70 82 90
0.126858 0.273538 0.110010 80 90 99
0.135778 0.273538 0.111001 77 90 97
0.135778 0.273538 0.034688 56 68 78
0.139742 0.273538 0.036670 49 64 74
0.144698 0.273538 0.107037 62 74 87
0.149653 0.273538 0.100099 36 54 70
0.154609 0.273538 0.090188 32 50 65
0.156591 0.273538 0.048563 42 56 68
0.161546 0.273538 0.072349 19 34 51
0.162537 0.273538 0.063429 17 36 53
0.255699 0.273538 0.095144 28 43 56
0.256690 0.273538 0.116947 22 38 56
0.256690 0.273538 0.101090 25 42 55
0.258672 0.273538 0.123885 33 51 64
0.262636 0.273538 0.127849 34 51 64
0.262636 0.273538 0.075322 23 43 53
0.266601 0.273538 0.134787 60 71 78
0.276511 0.273538 0.137760 89 99 105
0.280476 0.273538 0.064420 28 46 60
0.288404 0.273538 0.061447 39 52 66
0.290387 0.273538 0.139742 91 103 110
0.293360 0.273538 0.137760 89 100 108
0.301288 0.273538 0.133796 71 86 97
0.301288 0.273538 0.062438 57 69 79
0.305253 0.273538 0.132805 58 73 89
0.307235 0.273538 0.129832 52 71 85
0.319128 0.273538 0.116947 40 63 80
0.321110 0.273538 0.075322 52 67 78
0.323092 0.273538 0.111001 38 59 75
0.325074 0.273538 0.084242 47 64 79
0.328048 0.273538 0.095144 38 62 78
0.088206 0.274529 0.065411 25 41 59
0.089197 0.274529 0.069376 24 42 60
0.090188 0.274529 0.056492 26 43 62
0.094153 0.274529 0.089197 29 46 62
0.094153 0.274529 0.043608 23 45 60
0.097126 0.274529 0.094153 32 51 64
0.101090 0.274529 0.098117 41 56 71
0.103072 0.274529 0.036670 33 51 66
0.110010 0.274529 0.033697 34 53 67
0.129832 0.274529 0.111001 80 90 99
0.142716 0.274529 0.037661 51 65 75
0.145689 0.274529 0.104063 57 70 83
0.149653 0.274529 0.041625 52 64 74
0.152626 0.274529 0.043608 49 61 73
0.156591 0.274529 0.087215 23 41 58
0.157582 0.274529 0.083251 34 52 67
0.160555 0.274529 0.054509 28 44 57
0.163528 0.274529 0.060456 25 41 56
0.255699 0.274529 0.113974 19 39 54
0.255699 0.274529 0.110010 22 39 57
0.255699 0.274529 0.089197 23 38 55
0.258672 0.274529 0.080278 20 36 53
0.265610 0.274529 0.072349 21 36 53
0.267592 0.274529 0.069376 21 39 54
0.280476 0.274529 0.138751 92 102 111
0.283449 0.274529 0.063429 28 47 62
0.284440 0.274529 0.138751 95 106 114
0.296333 0.274529 0.062438 54 69 77
0.297324 0.274529 0.136769 81 94 102
0.304262 0.274529 0.063429 52 68 75
0.307235 0.274529 0.065411 59 71 78
0.309217 0.274529 0.126858 47 68 85
0.322101 0.274529 0.078295 53 66 78
0.324083 0.274529 0.108028 40 63 83
0.329039 0.274529 0.092170 47 70 86
0.089197 0.275520 0.074331 25 40 57
0.090188 0.275520 0.080278 39 58 73
0.091179 0.275520 0.053518 28 46 62
0.093162 0.275520 0.085233 36 52 64
0.097126 0.275520 0.042616 27 44 64
0.104063 0.275520 0.100099 42 58 73
0.112983 0.275520 0.106046 62 75 86
0.112983 0.275520 0.032706 37 53 66
0.118930 0.275520 0.031715 43 58 71
0.120912 0.275520 0.109019 73 85 93
0.122894 0.275520 0.031715 46 59 71
0.126858 0.275520 0.032706 46 60 72
0.130823 0.275520 0.033697 52 66 76
0.132805 0.275520 0.111992 84 92 102
0.138751 0.275520 0.111001 77 89 98
0.142716 0.275520 0.109019 66 79 90
0.145689 0.275520 0.039643 50 63 74
0.148662 0.275520 0.103072 41 58 72
0.151635 0.275520 0.098117 36 54 70
0.153617 0.275520 0.095144 30 47 66
0.155600 0.275520 0.045590 50 62 73
0.158573 0.275520 0.050545 38 51 65
0.160555 0.275520 0.078295 26 42 59
0.161546 0.275520 0.069376 16 32 50
0.162537 0.275520 0.075322 34 49 65
0.254708 0.275520 0.098117 15 30 45
0.254708 0.275520 0.092170 25 44 58
0.255699 0.275520 0.106046 21 38 53
0.256690 0.275520 0.120912 32 47 61
0.256690 0.275520 0.086224 24 40 55
0.259663 0.275520 0.126858 32 50 63
0.262636 0.275520 0.130823 39 55 67
0.268583 0.275520 0.136769 73 84 92
0.271556 0.275520 0.067393 21 40 55
0.273538 0.275520 0.136769 81 92 100
0.274529 0.275520 0.065411 26 44 59
0.291378 0.275520 0.062438 50 61 75
0.310208 0.275520 0.067393 52 64 76
0.312190 0.275520 0.124876 48 69 85
0.313181 0.275520 0.069376 56 71 80
0.316155 0.275520 0.121903 37 59 78
0.316155 0.275520 0.071358 54 66 76
0.319128 0.275520 0.073340 52 66 77
0.321110 0.275520 0.114965 36 58 77
0.325074 0.275520 0.105055 32 57 76
0.326065 0.275520 0.101090 30 50 73
0.327056 0.275520 0.087215 49 64 80
0.089197 0.276511 0.062438 24 39 58
0.091179 0.276511 0.049554 29 43 61
0.096135 0.276511 0.091179 33 45 61
0.099108 0.276511 0.096135 40 57 69
0.099108 0.276511 0.039643 28 44 64
0.105055 0.276511 0.034688 34 51 64
0.107037 0.276511 0.101090 48 63 76
0.109019 0.276511 0.104063 56 71 81
0.115956 0.276511 0.107037 64 78 88
0.123885 0.276511 0.110010 77 89 98
0.133796 0.276511 0.034688 56 68 79
0.137760 0.276511 0.035679 54 67 77
0.154609 0.276511 0.092170 33 50 66
0.159564 0.276511 0.081269 33 49 66
0.161546 0.276511 0.057483 25 43 55
0.162537 0.276511 0.066402 13 30 47
0.254708 0.276511 0.103072 22 38 54
0.255699 0.276511 0.117939 19 36 52
0.257681 0.276511 0.083251 20 36 53
0.259663 0.276511 0.077304 21 39 53
0.261645 0.276511 0.074331 23 39 54
0.264618 0.276511 0.133796 54 66 75
0.277502 0.276511 0.064420 28 47 60
0.286422 0.276511 0.062438 39 55 71
0.287413 0.276511 0.138751 94 105 113
0.291378 0.276511 0.138751 90 100 108
0.299306 0.276511 0.134787 76 92 102
0.299306 0.276511 0.063429 55 66 75
0.303271 0.276511 0.133796 69 86 98
0.305253 0.276511 0.130823 57 75 88
0.317146 0.276511 0.118930 46 64 82
0.320119 0.276511 0.076313 52 65 78
0.322101 0.276511 0.111992 50 66 82
0.323092 0.276511 0.082260 46 64 75
0.327056 0.276511 0.098117 32 55 73
0.327056 0.276511 0.094153 49 68 83
0.089197 0.277502 0.071358 24 38 58
0.089197 0.277502 0.067393 24 41 57
0.090188 0.277502 0.077304 25 38 57
0.090188 0.277502 0.059465 23 43 59
0.091179 0.277502 0.083251 31 48 62
0.092170 0.277502 0.046581 27 44 63
0.095144 0.277502 0.088206 34 48 63
0.095144 0.277502 0.044599 28 48 64
0.102081 0.277502 0.038652 32 47 64
0.108028 0.277502 0.033697 35 52 66
0.115956 0.277502 0.032706 38 57 70
0.126858 0.277502 0.111001 81 89 98
0.135778 0.277502 0.112983 83 94 102
0.140733 0.277502 0.036670 57 71 79
0.145689 0.277502 0.108028 57 72 83
0.148662 0.277502 0.040634 51 64 74
0.150644 0.277502 0.101090 35 53 68
0.151635 0.277502 0.042616 50 62 73
0.156591 0.277502 0.089197 23 42 60
0.157582 0.277502 0.085233 30 48 66
0.157582 0.277502 0.047572 44 58 70
0.159564 0.277502 0.053518 33 49 62
0.161546 0.277502 0.072349 18 35 52
0.163528 0.277502 0.063429 15 32 49
0.254708 0.277502 0.114965 18 36 53
0.254708 0.277502 0.111001 20 37 53
0.254708 0.277502 0.095144 24 38 54
0.257681 0.277502 0.124876 31 47 62
0.264618 0.277502 0.071358 21 36 53
0.268583 0.277502 0.068385 25 43 57
0.276511 0.277502 0.137760 88 99 105
0.280476 0.277502 0.063429 27 47 61
0.282458 0.277502 0.138751 92 103 110
0.294351 0.277502 0.137760 85 96 106
0.294351 0.277502 0.063429 53 65 77
0.302279 0.277502 0.062438 51 62 72
0.305253 0.277502 0.065411 56 70 78
0.308226 0.277502 0.128840 47 68 86
0.321110 0.277502 0.079286 48 63 78
0.323092 0.277502 0.109019 43 64 79
0.325074 0.277502 0.085233 48 65 79
0.328048 0.277502 0.091179 39 63 76
0.090188 0.278494 0.055500 22 40 61
0.097126 0.278494 0.094153 30 45 61
0.101090 0.278494 0.098117 38 54 70
0.111992 0.278494 0.105055 59 73 83
0.111992 0.278494 0.033697 36 52 67
0.118930 0.278494 0.108028 69 80 89
0.119921 0.278494 0.032706 41 60 72
0.124876 0.278494 0.031715 46 62 72
0.128840 0.278494 0.033697 50 65 77
0.129832 0.278494 0.111992 82 92 100
0.139742 0.278494 0.111992 76 87 96
0.143707 0.278494 0.038652 54 65 78
0.146680 0.278494 0.105055 54 69 82
0.152626 0.278494 0.097126 31 46 66
0.154609 0.278494 0.044599 45 58 70
0.161546 0.278494 0.079286 30 51 65
0.163528 0.278494 0.069376 17 32 50
0.163528 0.278494 0.059465 19 35 49
0.254708 0.278494 0.107037 24 37 55
0.254708 0.278494 0.100099 19 34 50
0.255699 0.278494 0.091179 26 42 56
0.255699 0.278494 0.087215 17 34 49
0.257681 0.278494 0.080278 20 36 54
0.260654 0.278494 0.129832 39 55 66
0.265610 0.278494 0.136769 66 73 82
0.269574 0.278494 0.137760 83 92 100
0.272547 0.278494 0.066402 26 42 59
0.283449 0.278494 0.062438 36 53 67
0.289395 0.278494 0.062438 38 56 69
0.297324 0.278494 0.136769 77 93 102
0.308226 0.278494 0.067393 55 68 77
0.310208 0.278494 0.125867 45 67 82
0.311199 0.278494 0.069376 54 68 79
0.313181 0.278494 0.123885 48 64 82
0.314172 0.278494 0.071358 52 68 76
0.317146 0.278494 0.073340 48 61 74
0.319128 0.278494 0.116947 50 67 87
0.325074 0.278494 0.103072 29 53 74
0.088206 0.279485 0.064420 46 52 60
0.090188 0.279485 0.080278 37 56 72
0.090188 0.279485 0.074331 22 41 57
0.091179 0.279485 0.052527 24 41 60
0.093162 0.279485 0.086224 30 47 62
0.097126 0.279485 0.042616 26 43 62
0.098117 0.279485 0.097126 39 56 70
0.100099 0.279485 0.040634 31 49 63
0.104063 0.279485 0.100099 40 57 71
0.104063 0.279485 0.036670 36 52 67
0.108028 0.279485 0.103072 49 66 78
0.114965 0.279485 0.106046 60 72 82
0.121903 0.279485 0.109019 71 82 92
0.131814 0.279485 0.034688 44 58 72
0.132805 0.279485 0.112983 83 93 102
