ply
format ascii 1.0
element vertex 1287
property float x
property float y
property float z
property uchar red
property uchar green
property uchar blue
end_header
0.252588 0.942029 0.185300 69 62 63
0.255694 0.937888 0.183230 61 57 57
0.258799 0.937888 0.182195 66 61 61
0.256729 0.940994 0.183230 69 65 65
0.258799 0.943064 0.185300 66 58 57
0.255694 0.943064 0.186335 64 55 56
0.252588 0.945135 0.186335 59 52 55
0.253623 0.947205 0.189441 67 60 61
0.256729 0.946170 0.188406 67 60 62
0.244306 0.936853 0.192547 45 41 39
0.245342 0.936853 0.195652 40 37 37
0.248447 0.937888 0.191511 58 53 50
0.248447 0.936853 0.194617 55 50 49
0.249482 0.935818 0.197723 46 43 42
0.250518 0.951346 0.192547 66 59 60
0.251553 0.935818 0.191511 66 60 57
0.253623 0.950311 0.191511 68 59 60
0.256729 0.948240 0.191511 71 63 63
0.256729 0.951346 0.192547 68 60 60
0.226708 0.953416 0.160455 74 65 64
0.226708 0.955487 0.163561 71 64 65
0.229814 0.953416 0.166667 70 62 62
0.227743 0.957557 0.166667 70 64 64
0.229814 0.959627 0.168737 77 70 69
0.230849 0.955487 0.169772 74 67 67
0.233954 0.953416 0.170807 73 65 64
0.230849 0.959627 0.171843 75 68 70
0.233954 0.956522 0.172878 68 60 62
0.226708 0.961698 0.166667 72 64 65
0.227743 0.963768 0.169772 80 73 73
0.229814 0.963768 0.172878 75 67 69
0.227743 0.967909 0.172878 79 70 71
0.237060 0.952381 0.172878 63 57 58
0.232919 0.959627 0.174948 66 59 61
0.229814 0.966874 0.175983 69 62 63
0.231884 0.963768 0.175983 68 62 63
0.233954 0.963768 0.179089 69 61 61
0.230849 0.967909 0.179089 69 63 64
0.233954 0.966874 0.181159 76 69 68
0.233954 0.967909 0.184265 69 62 62
0.236025 0.955487 0.175983 65 58 60
0.236025 0.958592 0.177019 68 61 62
0.238095 0.959627 0.180124 77 69 67
0.239130 0.954451 0.177019 77 69 69
0.242236 0.953416 0.179089 71 62 64
0.240166 0.956522 0.180124 71 63 63
0.242236 0.957557 0.183230 61 53 56
0.237060 0.962733 0.181159 75 66 65
0.237060 0.963768 0.184265 64 56 57
0.236025 0.966874 0.187371 62 55 55
0.240166 0.960663 0.183230 62 54 55
0.239130 0.963768 0.187371 61 56 58
0.242236 0.960663 0.186335 63 57 60
0.241201 0.961698 0.189441 65 59 60
0.234990 0.967909 0.191511 62 56 57
0.238095 0.965838 0.190476 66 60 62
0.238095 0.966874 0.193582 66 60 62
0.237060 0.967909 0.196687 66 60 61
0.240166 0.963768 0.192547 63 58 59
0.242236 0.960663 0.192547 64 59 60
0.241201 0.963768 0.195652 66 60 60
0.240166 0.966874 0.196687 66 60 61
0.240166 0.967909 0.199793 70 61 63
0.242236 0.964803 0.198758 69 62 63
0.242236 0.967909 0.202899 77 67 69
0.229814 0.969979 0.174948 71 64 64
0.228778 0.971014 0.178054 74 67 69
0.228778 0.972050 0.181159 76 70 70
0.229814 0.972050 0.184265 73 67 67
0.229814 0.972050 0.188406 65 58 57
0.231884 0.969979 0.182195 78 72 71
0.232919 0.971014 0.185300 68 61 61
0.232919 0.969979 0.188406 61 54 54
0.229814 0.972050 0.192547 65 60 61
0.229814 0.972050 0.196687 69 63 64
0.226708 0.974120 0.192547 70 63 62
0.226708 0.974120 0.196687 73 67 67
0.232919 0.969979 0.193582 65 60 61
0.233954 0.969979 0.196687 67 62 61
0.228778 0.974120 0.199793 71 64 65
0.227743 0.976190 0.202899 71 67 69
0.229814 0.976190 0.206004 73 65 66
0.231884 0.972050 0.199793 67 61 63
0.232919 0.972050 0.202899 74 70 71
0.232919 0.973085 0.206004 75 67 67
0.226708 0.978261 0.206004 69 61 64
0.236025 0.969979 0.199793 69 64 64
0.236025 0.971014 0.202899 73 66 67
0.236025 0.972050 0.206004 75 65 67
0.239130 0.969979 0.202899 75 68 69
0.240166 0.969979 0.206004 79 69 66
0.245342 0.953416 0.181159 68 61 63
0.246377 0.953416 0.184265 68 63 65
0.245342 0.953416 0.187371 68 63 65
0.245342 0.956522 0.183230 65 56 58
0.244306 0.958592 0.188406 65 59 61
0.246377 0.956522 0.186335 65 59 61
0.246377 0.952381 0.190476 71 65 69
0.246377 0.955487 0.191511 69 64 66
0.245342 0.958592 0.191511 64 58 61
0.244306 0.958592 0.194617 71 65 67
0.245342 0.959627 0.197723 68 62 63
0.250518 0.954451 0.193582 63 57 59
0.247412 0.954451 0.194617 65 60 62
0.247412 0.957557 0.195652 67 62 63
0.250518 0.957557 0.194617 69 63 62
0.249482 0.959627 0.197723 71 64 63
0.245342 0.962733 0.198758 70 63 63
0.245342 0.964803 0.201863 75 66 66
0.244306 0.967909 0.206004 79 68 65
0.248447 0.962733 0.199793 75 66 65
0.248447 0.963768 0.202899 79 69 68
0.250518 0.963768 0.206004 82 71 70
0.247412 0.965838 0.206004 80 68 65
0.253623 0.953416 0.192547 65 58 60
0.253623 0.956522 0.193582 68 61 62
0.252588 0.959627 0.196687 68 59 60
0.256729 0.954451 0.193582 67 59 59
0.257764 0.955487 0.196687 78 67 63
0.255694 0.958592 0.197723 74 65 64
0.254658 0.959627 0.200828 84 75 71
0.258799 0.956522 0.199793 89 79 76
0.256729 0.959627 0.203934 89 77 76
0.251553 0.961698 0.199793 79 71 70
0.252588 0.961698 0.202899 86 75 74
0.253623 0.961698 0.206004 88 78 75
0.289855 0.926501 0.172878 70 60 53
0.291925 0.923395 0.172878 72 63 59
0.288820 0.929607 0.172878 83 63 66
0.291925 0.930642 0.172878 77 65 63
0.260870 0.934783 0.183230 60 52 53
0.262940 0.932712 0.187371 54 49 47
0.267081 0.930642 0.187371 60 54 50
0.263975 0.934783 0.182195 61 54 55
0.266046 0.932712 0.184265 59 53 55
0.271222 0.931677 0.181159 64 55 55
0.270186 0.934783 0.181159 66 61 59
0.275362 0.930642 0.177019 64 54 54
0.274327 0.928571 0.181159 60 54 54
0.273292 0.933747 0.179089 68 54 53
0.269151 0.930642 0.184265 57 51 49
0.270186 0.929607 0.187371 59 51 45
0.272257 0.928571 0.184265 62 55 52
0.275362 0.927536 0.184265 58 50 44
0.273292 0.928571 0.187371 63 55 48
0.260870 0.932712 0.191511 55 49 44
0.260870 0.933747 0.194617 53 45 39
0.262940 0.932712 0.197723 40 36 34
0.266046 0.930642 0.190476 58 52 47
0.263975 0.932712 0.192547 54 47 41
0.267081 0.931677 0.193582 47 41 37
0.266046 0.932712 0.196687 42 38 37
0.259834 0.932712 0.201863 38 36 36
0.259834 0.932712 0.206004 36 33 34
0.262940 0.932712 0.202899 36 33 34
0.262940 0.931677 0.206004 35 32 34
0.267081 0.931677 0.199793 37 34 33
0.266046 0.931677 0.202899 34 30 31
0.267081 0.931677 0.206004 33 31 33
0.270186 0.930642 0.190476 57 49 42
0.271222 0.930642 0.193582 55 48 44
0.271222 0.930642 0.197723 36 33 34
0.273292 0.928571 0.191511 56 48 40
0.274327 0.928571 0.194617 50 43 38
0.274327 0.929607 0.197723 35 33 33
0.271222 0.930642 0.201863 32 32 35
0.270186 0.930642 0.204969 32 29 32
0.274327 0.929607 0.201863 31 30 32
0.273292 0.930642 0.206004 34 29 32
0.261905 0.937888 0.180124 63 57 57
0.260870 0.940994 0.183230 65 58 57
0.261905 0.943064 0.186335 66 59 58
0.265010 0.937888 0.182195 64 58 58
0.265010 0.940994 0.183230 64 58 58
0.265010 0.942029 0.186335 68 60 61
0.265010 0.943064 0.189441 67 59 59
0.259834 0.944099 0.189441 65 58 57
0.269151 0.937888 0.181159 66 59 60
0.273292 0.936853 0.181159 74 65 63
0.271222 0.938923 0.184265 73 65 63
0.268116 0.939959 0.184265 67 61 60
0.268116 0.940994 0.187371 70 63 63
0.271222 0.940994 0.188406 76 67 65
0.275362 0.936853 0.184265 76 66 63
0.274327 0.938923 0.187371 77 68 66
0.259834 0.947205 0.190476 70 62 63
0.262940 0.946170 0.190476 69 61 61
0.259834 0.950311 0.192547 70 62 62
0.262940 0.948240 0.193582 72 63 61
0.261905 0.951346 0.195652 79 69 65
0.267081 0.945135 0.191511 72 63 62
0.266046 0.947205 0.194617 67 55 58
0.265010 0.950311 0.196687 78 69 67
0.263975 0.951346 0.199793 85 75 72
0.267081 0.949275 0.199793 82 70 69
0.265010 0.951346 0.202899 76 67 67
0.266046 0.951346 0.206004 80 71 69
0.270186 0.943064 0.191511 74 65 65
0.275362 0.938923 0.190476 75 67 65
0.273292 0.942029 0.191511 75 66 64
0.272257 0.943064 0.194617 75 65 63
0.275362 0.940994 0.194617 64 56 54
0.274327 0.943064 0.197723 74 64 60
0.269151 0.945135 0.194617 74 65 65
0.269151 0.947205 0.197723 83 73 71
0.270186 0.947205 0.200828 73 60 60
0.268116 0.949275 0.202899 73 65 63
0.269151 0.950311 0.206004 73 65 64
0.271222 0.948240 0.203934 72 63 61
0.273292 0.945135 0.200828 72 59 60
0.274327 0.947205 0.203934 72 61 60
0.279503 0.926501 0.177019 64 55 54
0.277433 0.926501 0.180124 60 50 49
0.283644 0.925466 0.177019 67 58 52
0.280538 0.925466 0.180124 65 54 50
0.283644 0.925466 0.181159 64 54 47
0.278468 0.926501 0.183230 66 56 50
0.277433 0.926501 0.189441 58 50 43
0.279503 0.926501 0.186335 59 50 43
0.283644 0.924431 0.185300 69 61 54
0.280538 0.925466 0.189441 64 52 46
0.283644 0.924431 0.189441 61 52 44
0.278468 0.929607 0.174948 66 57 55
0.276398 0.933747 0.177019 67 56 59
0.279503 0.932712 0.175983 66 57 56
0.276398 0.934783 0.180124 75 66 63
0.279503 0.933747 0.179089 74 67 66
0.281574 0.928571 0.174948 67 57 54
0.282609 0.931677 0.174948 78 59 64
0.283644 0.932712 0.178054 75 67 63
0.282609 0.933747 0.181159 76 68 65
0.279503 0.934783 0.182195 77 66 65
0.280538 0.934783 0.185300 74 63 62
0.283644 0.932712 0.184265 72 63 62
0.280538 0.934783 0.189441 71 64 63
0.283644 0.932712 0.188406 68 61 59
0.287785 0.922360 0.179089 69 59 51
0.287785 0.924431 0.174948 68 60 56
0.290890 0.921325 0.177019 73 62 57
0.290890 0.920290 0.180124 70 57 50
0.286749 0.922360 0.182195 69 55 44
0.287785 0.921325 0.185300 62 51 44
0.286749 0.922360 0.188406 65 54 44
0.290890 0.920290 0.184265 64 54 46
0.289855 0.921325 0.188406 64 55 47
0.285714 0.927536 0.174948 72 61 59
0.286749 0.931677 0.174948 75 56 69
0.285714 0.932712 0.181159 75 65 64
0.287785 0.931677 0.178054 77 67 66
0.291925 0.930642 0.178054 78 67 64
0.290890 0.930642 0.181159 70 59 57
0.287785 0.930642 0.188406 69 62 59
0.286749 0.931677 0.184265 66 59 57
0.289855 0.930642 0.185300 63 55 53
0.290890 0.930642 0.189441 59 51 48
0.278468 0.926501 0.192547 59 53 49
0.281574 0.926501 0.193582 44 36 33
0.277433 0.927536 0.195652 41 34 34
0.280538 0.927536 0.196687 38 35 33
0.283644 0.927536 0.197723 32 31 31
0.281574 0.933747 0.192547 71 64 61
0.283644 0.931677 0.194617 75 69 68
0.282609 0.934783 0.195652 69 60 59
0.277433 0.928571 0.198758 33 30 32
0.279503 0.928571 0.201863 31 30 32
0.276398 0.929607 0.204969 32 30 31
0.279503 0.929607 0.206004 32 31 31
0.282609 0.928571 0.200828 34 33 34
0.282609 0.929607 0.203934 35 33 32
0.285714 0.926501 0.191511 48 42 36
0.291925 0.920290 0.191511 50 40 41
0.288820 0.924431 0.190476 52 45 38
0.291925 0.924431 0.191511 46 41 38
0.291925 0.926501 0.197723 36 34 34
0.290890 0.926501 0.200828 30 29 30
0.291925 0.924431 0.203934 35 35 35
0.287785 0.928571 0.193582 48 42 37
0.284679 0.927536 0.194617 43 37 36
0.286749 0.928571 0.197723 32 30 29
0.284679 0.931677 0.191511 66 56 53
0.284679 0.932712 0.197723 69 60 58
0.287785 0.931677 0.197723 74 64 60
0.290890 0.927536 0.192547 48 42 36
0.291925 0.930642 0.192547 55 49 45
0.290890 0.929607 0.195652 64 55 48
0.285714 0.928571 0.201863 35 32 31
0.285714 0.929607 0.204969 35 34 33
0.286749 0.934783 0.199793 71 61 57
0.288820 0.928571 0.202899 31 31 32
0.289855 0.928571 0.206004 34 32 32
0.289855 0.933747 0.199793 71 60 57
0.277433 0.936853 0.187371 75 65 66
0.277433 0.937888 0.193582 63 53 55
0.277433 0.938923 0.196687 69 62 61
0.280538 0.937888 0.195652 68 58 56
0.283644 0.937888 0.197723 69 59 57
0.277433 0.940994 0.199793 62 52 52
0.280538 0.939959 0.198758 63 53 54
0.280538 0.943064 0.199793 69 60 58
0.283644 0.940994 0.198758 75 63 61
0.283644 0.943064 0.201863 80 67 60
0.276398 0.944099 0.200828 64 55 52
0.277433 0.946170 0.203934 76 66 63
0.280538 0.944099 0.202899 78 67 62
0.280538 0.946170 0.206004 87 73 67
0.283644 0.944099 0.204969 88 75 67
0.285714 0.938923 0.200828 77 65 58
0.286749 0.940994 0.203934 81 69 64
0.288820 0.936853 0.201863 83 70 64
0.291925 0.935818 0.201863 82 70 62
0.289855 0.938923 0.204969 76 62 59
0.260870 0.954451 0.195652 81 70 68
0.261905 0.954451 0.198758 90 77 74
0.261905 0.955487 0.201863 85 74 72
0.262940 0.954451 0.204969 85 74 72
0.259834 0.957557 0.203934 89 78 78
0.298137 0.922360 0.164596 79 67 60
0.296066 0.921325 0.168737 89 72 62
0.295031 0.920290 0.171843 85 70 66
0.296066 0.924431 0.166667 75 64 56
0.293996 0.924431 0.169772 70 59 53
0.298137 0.926501 0.168737 91 73 73
0.300207 0.924431 0.166667 77 64 59
0.300207 0.926501 0.171843 83 70 69
0.292961 0.927536 0.170807 72 62 58
0.296066 0.928571 0.170807 85 61 65
0.301242 0.921325 0.164596 77 63 56
0.304348 0.919255 0.167702 80 63 60
0.303313 0.922360 0.167702 109 94 90
0.303313 0.924431 0.170807 81 70 64
0.305383 0.921325 0.170807 87 67 72
0.308489 0.921325 0.172878 86 73 72
0.293996 0.921325 0.174948 78 65 60
0.295031 0.929607 0.173913 78 67 65
0.295031 0.930642 0.177019 73 64 61
0.295031 0.929607 0.180124 71 63 60
0.298137 0.928571 0.173913 78 70 68
0.299172 0.927536 0.177019 75 67 64
0.298137 0.928571 0.180124 70 62 59
0.293996 0.930642 0.183230 69 60 59
0.292961 0.930642 0.186335 61 51 52
0.296066 0.929607 0.186335 68 59 56
0.295031 0.930642 0.189441 66 59 58
0.297101 0.929607 0.183230 70 62 58
0.300207 0.927536 0.183230 67 56 56
0.298137 0.929607 0.189441 67 57 55
0.299172 0.928571 0.186335 68 59 58
0.302277 0.925466 0.174948 83 75 72
0.302277 0.926501 0.178054 80 68 69
0.303313 0.925466 0.181159 73 63 64
0.308489 0.922360 0.175983 80 70 68
0.305383 0.923395 0.173913 83 61 72
0.305383 0.924431 0.177019 82 72 74
0.306418 0.924431 0.180124 80 72 69
0.303313 0.926501 0.184265 68 57 57
0.306418 0.924431 0.184265 72 61 60
0.305383 0.926501 0.187371 69 59 57
0.308489 0.924431 0.187371 71 62 59
0.302277 0.928571 0.187371 65 56 56
0.293996 0.921325 0.194617 42 37 35
0.293996 0.922360 0.197723 38 36 34
0.292961 0.925466 0.194617 45 40 36
0.295031 0.922360 0.200828 33 33 32
0.293996 0.922360 0.206004 36 34 33
0.298137 0.920290 0.200828 32 30 32
0.297101 0.920290 0.203934 30 31 32
0.300207 0.919255 0.203934 33 33 33
0.295031 0.930642 0.193582 62 54 52
0.292961 0.931677 0.197723 67 56 53
0.296066 0.932712 0.196687 75 63 55
0.298137 0.929607 0.193582 68 58 53
0.300207 0.931677 0.195652 78 64 54
0.293996 0.934783 0.198758 77 67 59
0.297101 0.934783 0.199793 85 70 61
0.300207 0.933747 0.198758 85 68 57
0.298137 0.934783 0.202899 82 65 57
0.299172 0.934783 0.206004 81 64 55
0.307453 0.926501 0.190476 68 58 53
0.306418 0.920290 0.206004 44 39 35
0.301242 0.928571 0.190476 65 58 56
0.302277 0.928571 0.193582 70 57 52
0.303313 0.930642 0.196687 81 66 55
0.305383 0.928571 0.192547 66 56 52
0.308489 0.927536 0.193582 67 53 48
0.306418 0.928571 0.196687 80 64 55
0.301242 0.933747 0.201863 81 64 54
0.304348 0.932712 0.199793 84 65 57
0.302277 0.933747 0.204969 78 61 51
0.307453 0.929607 0.199793 92 71 59
0.308489 0.930642 0.202899 86 67 56
0.305383 0.932712 0.202899 82 65 55
0.306418 0.932712 0.206004 79 63 52
0.293996 0.937888 0.203934 76 64 58
0.311594 0.921325 0.177019 73 64 61
0.310559 0.922360 0.180124 74 64 64
0.313665 0.920290 0.180124 77 68 66
0.311594 0.922360 0.183230 77 66 65
0.311594 0.922360 0.187371 79 68 64
0.314700 0.920290 0.184265 75 67 63
0.314700 0.920290 0.188406 73 61 60
0.312629 0.922360 0.190476 73 58 57
0.309524 0.923395 0.190476 73 62 59
0.310559 0.924431 0.193582 71 58 53
0.312629 0.926501 0.195652 73 57 46
0.313665 0.922360 0.193582 75 63 55
0.315735 0.920290 0.191511 77 66 58
0.316770 0.920290 0.194617 79 65 56
0.316770 0.921325 0.197723 84 68 57
0.314700 0.924431 0.197723 75 59 48
0.316770 0.926501 0.199793 87 67 52
0.309524 0.927536 0.196687 77 60 51
0.310559 0.928571 0.199793 92 72 57
0.311594 0.929607 0.202899 93 71 60
0.309524 0.931677 0.206004 82 62 50
0.313665 0.927536 0.198758 87 68 53
0.314700 0.930642 0.201863 96 71 61
0.313665 0.931677 0.204969 93 72 54
0.316770 0.931677 0.206004 96 71 54
0.319876 0.920290 0.191511 77 63 59
0.319876 0.920290 0.195652 67 57 49
0.322981 0.920290 0.197723 70 58 47
0.319876 0.921325 0.198758 68 53 47
0.319876 0.924431 0.200828 87 69 55
0.322981 0.920290 0.201863 71 57 49
0.322981 0.924431 0.201863 81 65 47
0.318841 0.928571 0.201863 101 78 61
0.320911 0.930642 0.203934 99 73 55
0.321946 0.927536 0.200828 101 79 64
0.325052 0.927536 0.201863 97 75 59
0.324017 0.930642 0.204969 98 74 54
0.326087 0.921325 0.203934 83 70 59
0.329193 0.921325 0.204969 93 74 62
0.327122 0.924431 0.201863 79 62 45
0.332298 0.921325 0.206004 93 72 61
0.330228 0.926501 0.200828 82 60 36
0.333333 0.926501 0.199793 87 67 45
0.330228 0.924431 0.203934 91 73 58
0.333333 0.924431 0.204969 100 81 64
0.328157 0.929607 0.201863 101 77 60
0.327122 0.930642 0.206004 100 77 59
0.328157 0.933747 0.206004 108 88 69
0.331263 0.929607 0.200828 99 73 52
0.333333 0.931677 0.198758 106 87 69
0.332298 0.932712 0.201863 100 79 56
0.336439 0.926501 0.198758 86 71 55
0.337474 0.926501 0.201863 86 63 55
0.336439 0.925466 0.206004 84 65 61
0.335404 0.929607 0.196687 81 65 49
0.336439 0.932712 0.196687 95 75 61
0.338509 0.928571 0.195652 96 73 57
0.340580 0.930642 0.197723 97 74 64
0.334369 0.934783 0.199793 104 83 67
0.337474 0.932712 0.199793 105 84 68
0.335404 0.933747 0.202899 105 82 63
0.335404 0.934783 0.206004 100 80 62
0.339545 0.927536 0.198758 78 57 49
0.339545 0.929607 0.201863 86 69 55
0.338509 0.928571 0.204969 90 73 62
0.338509 0.931677 0.206004 96 78 59
0.331263 0.935818 0.203934 102 81 58
0.333333 0.937888 0.206004 118 91 72
0.348861 0.920290 0.186335 81 67 57
0.348861 0.921325 0.189441 88 71 61
0.351967 0.920290 0.183230 91 73 57
0.351967 0.921325 0.186335 64 57 51
0.353002 0.921325 0.189441 76 60 58
0.355072 0.919255 0.183230 69 61 54
0.349896 0.921325 0.192547 85 69 59
0.353002 0.921325 0.193582 90 76 62
0.126294 0.901656 0.207039 135 104 82
0.124224 0.904762 0.209110 158 119 98
0.126294 0.902691 0.211180 130 99 77
0.125259 0.905797 0.212215 155 117 97
0.124224 0.909938 0.207039 187 133 117
0.124224 0.908903 0.210145 182 131 116
0.124224 0.909938 0.213251 183 133 118
0.126294 0.906832 0.215321 143 105 89
0.126294 0.909938 0.216356 173 129 114
0.124224 0.913043 0.208075 200 143 130
0.124224 0.913043 0.212215 197 141 128
0.124224 0.916149 0.209110 202 145 131
0.125259 0.916149 0.212215 196 141 125
0.125259 0.913043 0.215321 190 136 119
0.126294 0.916149 0.215321 192 137 120
0.138716 0.868530 0.211180 134 108 86
0.137681 0.868530 0.214286 136 110 86
0.141822 0.868530 0.209110 111 90 70
0.140787 0.866460 0.214286 104 85 66
0.137681 0.868530 0.218426 140 111 87
0.138716 0.868530 0.221532 140 113 89
0.140787 0.866460 0.218426 111 92 72
0.141822 0.866460 0.221532 114 95 75
0.141822 0.868530 0.224638 149 124 101
0.134576 0.885093 0.208075 175 139 113
0.136646 0.871636 0.209110 161 127 102
0.135611 0.872671 0.212215 177 135 113
0.135611 0.874741 0.209110 176 135 113
0.135611 0.876812 0.212215 185 141 118
0.136646 0.871636 0.215321 171 130 108
0.136646 0.872671 0.218426 184 139 121
0.137681 0.871636 0.221532 173 132 113
0.135611 0.874741 0.215321 186 137 116
0.136646 0.876812 0.218426 178 130 111
0.137681 0.874741 0.222567 183 134 116
0.135611 0.879917 0.209110 183 142 117
0.135611 0.880952 0.212215 176 134 109
0.135611 0.884058 0.211180 171 134 108
0.135611 0.885093 0.214286 163 117 102
0.135611 0.878882 0.215321 174 129 108
0.136646 0.880952 0.218426 152 111 91
0.136646 0.879917 0.221532 147 112 88
0.135611 0.884058 0.217391 149 86 82
0.136646 0.883023 0.222567 134 33 58
0.140787 0.871636 0.223602 166 130 109
0.142857 0.871636 0.226708 175 137 118
0.140787 0.874741 0.224638 179 136 117
0.142857 0.876812 0.226708 171 124 107
0.138716 0.879917 0.224638 132 94 77
0.138716 0.883023 0.225673 138 42 68
0.141822 0.879917 0.225673 135 101 79
0.142857 0.880952 0.228778 120 49 53
0.140787 0.885093 0.227743 170 76 99
0.144928 0.867495 0.210145 99 80 58
0.143892 0.866460 0.213251 98 79 57
0.146998 0.866460 0.214286 95 76 54
0.148033 0.867495 0.209110 97 77 55
0.151139 0.867495 0.207039 96 76 53
0.150104 0.866460 0.212215 95 76 53
0.143892 0.865424 0.216356 95 77 58
0.146998 0.865424 0.217391 93 74 54
0.144928 0.865424 0.220497 96 79 61
0.150104 0.865424 0.215321 94 75 53
0.151139 0.865424 0.218426 95 76 54
0.148033 0.865424 0.221532 95 77 58
0.151139 0.865424 0.222567 100 81 61
0.153209 0.867495 0.210145 95 75 52
0.153209 0.865424 0.214286 96 76 53
0.157350 0.867495 0.208075 95 74 50
0.156315 0.866460 0.211180 97 77 53
0.157350 0.866460 0.214286 99 79 55
0.159420 0.867495 0.211180 100 79 55
0.154244 0.865424 0.217391 96 77 54
0.155280 0.865424 0.220497 99 79 56
0.158385 0.866460 0.217391 100 80 58
0.159420 0.866460 0.220497 105 85 63
0.144928 0.866460 0.223602 114 95 76
0.144928 0.868530 0.226708 152 123 100
0.148033 0.866460 0.224638 113 94 75
0.151139 0.866460 0.225673 122 100 77
0.148033 0.868530 0.227743 156 126 103
0.151139 0.868530 0.228778 155 124 100
0.154244 0.865424 0.223602 109 88 67
0.154244 0.867495 0.226708 136 111 86
0.157350 0.866460 0.223602 112 91 69
0.157350 0.868530 0.226708 133 108 82
0.145963 0.871636 0.227743 182 138 121
0.145963 0.874741 0.228778 185 135 120
0.149068 0.871636 0.228778 180 137 119
0.149068 0.874741 0.229814 185 139 119
0.145963 0.878882 0.228778 144 107 84
0.143892 0.884058 0.229814 157 70 93
0.146998 0.881988 0.230849 133 55 61
0.149068 0.878882 0.229814 149 116 92
0.148033 0.885093 0.230849 160 57 86
0.151139 0.881988 0.230849 152 120 95
0.151139 0.885093 0.231884 151 67 86
0.152174 0.871636 0.229814 179 143 120
0.155280 0.870600 0.228778 164 133 109
0.153209 0.874741 0.229814 183 144 120
0.159420 0.870600 0.228778 154 126 98
0.156315 0.873706 0.229814 171 136 110
0.156315 0.876812 0.230849 170 135 108
0.159420 0.874741 0.229814 162 129 100
0.152174 0.877847 0.230849 161 127 102
0.155280 0.879917 0.230849 161 128 101
0.159420 0.877847 0.230849 165 132 102
0.154244 0.883023 0.231884 157 127 100
0.158385 0.880952 0.231884 163 130 101
0.157350 0.884058 0.231884 157 127 99
0.134576 0.888199 0.209110 169 131 108
0.128364 0.899586 0.209110 122 96 71
0.130435 0.899586 0.212215 136 110 85
0.132505 0.896480 0.207039 110 83 66
0.132505 0.897516 0.210145 122 101 81
0.132505 0.897516 0.214286 132 94 82
0.134576 0.895445 0.217391 114 36 41
0.134576 0.895445 0.221532 116 33 54
0.132505 0.898551 0.217391 152 112 98
0.131470 0.901656 0.215321 155 121 98
0.132505 0.901656 0.218426 166 127 107
0.132505 0.899586 0.221532 165 123 106
0.135611 0.888199 0.212215 157 81 90
0.135611 0.891304 0.209110 154 92 93
0.136646 0.891304 0.212215 132 89 91
0.135611 0.887164 0.218426 154 53 80
0.135611 0.889234 0.215321 152 49 81
0.136646 0.886128 0.221532 165 89 102
0.136646 0.889234 0.222567 133 112 107
0.136646 0.890269 0.218426 137 121 120
0.136646 0.892340 0.215321 158 142 129
0.136646 0.893375 0.219462 181 157 146
0.135611 0.894410 0.207039 117 51 70
0.136646 0.895445 0.210145 97 55 54
0.135611 0.895445 0.213251 107 58 60
0.134576 0.896480 0.224638 133 51 73
0.133540 0.899586 0.224638 174 133 116
0.134576 0.899586 0.227743 164 125 104
0.134576 0.901656 0.230849 115 83 68
0.137681 0.886128 0.224638 167 60 89
0.138716 0.889234 0.225673 177 167 162
0.136646 0.892340 0.223602 172 140 130
0.138716 0.892340 0.226708 195 172 162
0.141822 0.888199 0.227743 158 145 140
0.141822 0.891304 0.228778 210 196 187
0.136646 0.895445 0.227743 132 49 69
0.138716 0.897516 0.229814 160 117 108
0.137681 0.900621 0.230849 125 91 71
0.139752 0.894410 0.229814 116 17 47
0.142857 0.894410 0.230849 131 63 70
0.135611 0.901656 0.233954 120 89 71
0.138716 0.901656 0.234990 122 91 75
0.141822 0.897516 0.231884 139 77 81
0.142857 0.899586 0.234990 142 111 89
0.128364 0.903727 0.214286 116 83 62
0.130435 0.905797 0.216356 124 88 70
0.129400 0.908903 0.217391 134 98 81
0.130435 0.908903 0.220497 132 94 74
0.132505 0.904762 0.219462 164 120 104
0.132505 0.905797 0.222567 135 82 72
0.133540 0.902691 0.222567 168 127 107
0.128364 0.912008 0.218426 174 126 111
0.130435 0.912008 0.221532 167 124 106
0.128364 0.916149 0.218426 186 132 117
0.131470 0.916149 0.220497 180 123 110
0.130435 0.905797 0.226708 140 107 84
0.130435 0.904762 0.229814 91 69 50
0.130435 0.908903 0.224638 185 135 117
0.129400 0.907867 0.229814 178 132 113
0.133540 0.902691 0.226708 143 105 88
0.130435 0.905797 0.232919 138 101 79
0.130435 0.909938 0.232919 181 133 113
0.130435 0.906832 0.236025 186 148 128
0.132505 0.903727 0.234990 124 100 76
0.133540 0.905797 0.238095 167 129 110
0.131470 0.909938 0.236025 202 153 135
0.134576 0.909938 0.237060 195 147 129
0.130435 0.910973 0.227743 179 129 113
0.131470 0.912008 0.224638 163 116 99
0.132505 0.914079 0.227743 180 134 114
0.131470 0.913043 0.230849 179 133 112
0.131470 0.915114 0.223602 188 138 121
0.132505 0.918219 0.223602 183 131 114
0.132505 0.917184 0.226708 189 140 121
0.132505 0.916149 0.230849 178 130 110
0.132505 0.913043 0.233954 199 147 129
0.133540 0.913043 0.237060 208 156 139
0.133540 0.916149 0.233954 200 148 131
0.135611 0.902691 0.237060 105 73 60
0.137681 0.905797 0.238095 149 118 97
0.137681 0.908903 0.239130 173 131 111
0.140787 0.903727 0.238095 75 50 37
0.140787 0.906832 0.239130 179 135 116
0.141822 0.909938 0.239130 166 122 101
0.136646 0.914079 0.237060 201 147 131
0.136646 0.918219 0.234990 203 154 138
0.139752 0.913043 0.238095 178 135 114
0.142857 0.914079 0.238095 173 129 109
0.139752 0.916149 0.237060 183 136 119
0.142857 0.917184 0.237060 180 133 115
0.144928 0.887164 0.229814 139 45 71
0.144928 0.890269 0.230849 186 170 159
0.148033 0.889234 0.230849 150 138 131
0.151139 0.888199 0.230849 133 103 103
0.145963 0.893375 0.231884 161 107 104
0.149068 0.892340 0.231884 169 127 113
0.144928 0.896480 0.233954 134 56 73
0.144928 0.901656 0.237060 132 99 81
0.146998 0.898551 0.236025 169 134 108
0.148033 0.895445 0.233954 111 26 46
0.151139 0.894410 0.233954 110 30 43
0.150104 0.897516 0.236025 157 120 105
0.149068 0.901656 0.237060 134 101 81
0.154244 0.887164 0.230849 150 55 80
0.152174 0.891304 0.230849 184 166 155
0.155280 0.890269 0.230849 116 102 98
0.154244 0.893375 0.232919 120 78 75
0.158385 0.887164 0.231884 156 112 97
0.157350 0.893375 0.231884 102 70 67
0.159420 0.890269 0.232919 129 79 76
0.154244 0.896480 0.234990 109 64 58
0.154244 0.897516 0.238095 125 101 77
0.152174 0.900621 0.238095 128 100 79
0.157350 0.895445 0.234990 97 65 54
0.158385 0.896480 0.238095 122 101 81
0.143892 0.904762 0.238095 123 96 73
0.146998 0.905797 0.238095 135 105 84
0.144928 0.908903 0.239130 175 125 108
0.151139 0.903727 0.239130 130 102 86
0.148033 0.909938 0.239130 153 115 98
0.150104 0.906832 0.239130 125 95 75
0.145963 0.913043 0.239130 170 128 111
0.145963 0.916149 0.238095 185 135 118
0.149068 0.914079 0.239130 187 138 122
0.149068 0.917184 0.238095 186 138 120
0.152174 0.918219 0.239130 171 120 107
0.154244 0.901656 0.241201 129 100 80
0.157350 0.899586 0.240166 125 99 76
0.159420 0.901656 0.242236 141 106 82
0.151139 0.909938 0.241201 180 136 118
0.153209 0.905797 0.241201 148 113 92
0.155280 0.907867 0.243271 177 132 116
0.156315 0.903727 0.243271 149 110 89
0.159420 0.904762 0.244306 163 120 101
0.157350 0.909938 0.245342 190 138 122
0.152174 0.913043 0.241201 190 139 124
0.154244 0.910973 0.243271 190 139 125
0.155280 0.914079 0.242236 196 143 128
0.155280 0.917184 0.241201 175 122 108
0.158385 0.913043 0.245342 198 145 130
0.158385 0.916149 0.243271 189 134 119
0.200828 0.787785 0.208075 71 62 58
0.203934 0.788820 0.209110 69 59 54
0.203934 0.791925 0.208075 69 59 56
0.207039 0.788820 0.210145 73 60 57
0.207039 0.791925 0.209110 73 59 58
0.207039 0.795031 0.207039 73 59 57
0.210145 0.787785 0.212215 81 66 59
0.213251 0.786749 0.213251 84 69 60
0.213251 0.789855 0.212215 83 69 61
0.210145 0.791925 0.210145 80 65 59
0.213251 0.792961 0.210145 82 66 59
0.216356 0.786749 0.214286 79 65 60
0.216356 0.789855 0.213251 78 66 60
0.216356 0.792961 0.211180 79 66 61
0.210145 0.796066 0.208075 78 62 59
0.213251 0.796066 0.209110 82 67 60
0.211180 0.799172 0.207039 78 62 60
0.216356 0.796066 0.210145 79 65 60
0.214286 0.799172 0.208075 81 66 60
0.217391 0.799172 0.209110 77 64 57
0.216356 0.802277 0.208075 77 65 58
0.219462 0.789855 0.214286 67 57 53
0.219462 0.793996 0.212215 68 57 53
0.222567 0.792961 0.214286 64 54 50
0.219462 0.786749 0.215321 66 56 52
0.222567 0.788820 0.216356 67 56 51
0.225673 0.788820 0.218426 70 58 54
0.224638 0.791925 0.217391 70 58 54
0.219462 0.797101 0.211180 70 58 55
0.219462 0.802277 0.209110 72 61 55
0.221532 0.800207 0.211180 64 55 51
0.222567 0.796066 0.213251 65 54 50
0.225673 0.798137 0.214286 70 59 54
0.224638 0.801242 0.212215 68 58 53
0.225673 0.795031 0.216356 70 58 54
0.218426 0.805383 0.207039 74 62 56
0.221532 0.805383 0.208075 69 58 54
0.221532 0.808489 0.207039 69 58 53
0.224638 0.804348 0.210145 67 56 52
0.224638 0.808489 0.208075 67 56 52
0.224638 0.812629 0.208075 69 58 54
0.160455 0.867495 0.207039 94 74 51
0.163561 0.867495 0.208075 102 81 59
0.160455 0.867495 0.214286 102 81 56
0.163561 0.867495 0.212215 107 85 60
0.167702 0.867495 0.208075 112 90 67
0.166667 0.868530 0.211180 113 91 66
0.167702 0.868530 0.214286 111 89 63
0.161491 0.867495 0.217391 105 83 58
0.161491 0.868530 0.222567 117 95 71
0.164596 0.867495 0.215321 107 84 59
0.164596 0.868530 0.218426 106 83 56
0.160455 0.868530 0.225673 128 105 80
0.167702 0.869565 0.217391 106 83 56
0.164596 0.869565 0.221532 114 91 66
0.167702 0.870600 0.221532 114 91 65
0.169772 0.869565 0.210145 117 94 68
0.170807 0.869565 0.213251 113 90 65
0.173913 0.869565 0.208075 119 96 70
0.175983 0.871636 0.210145 119 95 69
0.173913 0.870600 0.213251 111 88 63
0.170807 0.870600 0.216356 107 84 58
0.170807 0.870600 0.220497 109 86 60
0.173913 0.871636 0.216356 105 83 57
0.173913 0.872671 0.219462 110 86 60
0.172878 0.872671 0.222567 117 93 67
0.175983 0.874741 0.221532 116 91 64
0.163561 0.870600 0.224638 129 105 79
0.162526 0.871636 0.227743 144 116 87
0.163561 0.874741 0.229814 156 125 91
0.165631 0.872671 0.226708 139 111 80
0.167702 0.874741 0.228778 146 116 84
0.162526 0.878882 0.230849 159 125 94
0.165631 0.877847 0.230849 155 123 91
0.161491 0.881988 0.231884 164 131 101
0.161491 0.885093 0.232919 164 133 105
0.164596 0.880952 0.232919 157 127 95
0.167702 0.880952 0.231884 149 121 92
0.164596 0.884058 0.233954 158 129 98
0.167702 0.885093 0.233954 153 123 92
0.168737 0.871636 0.224638 125 100 74
0.170807 0.874741 0.225673 133 108 80
0.170807 0.875776 0.228778 140 113 84
0.173913 0.875776 0.225673 129 103 75
0.173913 0.876812 0.228778 137 110 82
0.170807 0.878882 0.229814 145 118 89
0.173913 0.879917 0.229814 141 113 83
0.170807 0.881988 0.231884 149 120 90
0.170807 0.885093 0.234990 155 125 93
0.173913 0.883023 0.232919 149 120 88
0.179089 0.871636 0.207039 125 99 73
0.179089 0.872671 0.210145 119 93 65
0.177019 0.872671 0.213251 113 89 63
0.180124 0.873706 0.213251 117 92 64
0.182195 0.873706 0.209110 124 100 72
0.183230 0.875776 0.212215 121 96 70
0.177019 0.873706 0.216356 109 86 59
0.180124 0.874741 0.216356 114 88 61
0.179089 0.874741 0.219462 115 90 64
0.179089 0.875776 0.222567 122 96 67
0.182195 0.876812 0.218426 117 92 64
0.183230 0.876812 0.215321 118 92 64
0.182195 0.877847 0.221532 122 96 70
0.184265 0.880952 0.222567 129 101 72
0.185300 0.875776 0.209110 128 102 74
0.188406 0.876812 0.208075 133 106 76
0.186335 0.877847 0.212215 124 96 68
0.188406 0.879917 0.214286 125 97 69
0.189441 0.879917 0.210145 133 104 75
0.192547 0.879917 0.209110 137 107 75
0.192547 0.883023 0.210145 135 104 74
0.190476 0.883023 0.214286 126 97 67
0.185300 0.878882 0.217391 120 94 66
0.188406 0.880952 0.217391 123 96 66
0.187371 0.880952 0.220497 127 101 73
0.188406 0.884058 0.220497 129 103 75
0.190476 0.884058 0.217391 128 99 69
0.177019 0.876812 0.225673 130 104 76
0.180124 0.878882 0.224638 130 104 75
0.177019 0.878882 0.228778 137 108 79
0.180124 0.880952 0.227743 135 108 78
0.177019 0.881988 0.230849 141 113 82
0.180124 0.884058 0.229814 140 111 79
0.183230 0.880952 0.225673 131 105 77
0.184265 0.884058 0.226708 135 107 76
0.183230 0.885093 0.229814 137 109 76
0.177019 0.885093 0.232919 146 117 84
0.187371 0.883023 0.223602 132 104 73
0.162526 0.888199 0.233954 149 119 92
0.160455 0.893375 0.233954 94 47 54
0.163561 0.891304 0.234990 140 110 85
0.165631 0.888199 0.234990 152 122 92
0.164596 0.893375 0.238095 140 109 81
0.167702 0.890269 0.237060 144 113 81
0.167702 0.893375 0.239130 137 108 76
0.161491 0.894410 0.237060 115 92 70
0.170807 0.888199 0.236025 153 122 88
0.170807 0.891304 0.238095 146 116 84
0.173913 0.886128 0.234990 154 123 89
0.173913 0.889234 0.236025 155 123 87
0.173913 0.892340 0.238095 156 123 90
0.175983 0.895445 0.239130 157 125 92
0.192547 0.886128 0.213251 127 94 68
0.192547 0.887164 0.216356 130 99 72
0.190476 0.887164 0.220497 134 105 76
0.192547 0.890269 0.217391 132 99 73
0.190476 0.890269 0.222567 137 109 78
0.192547 0.892340 0.220497 138 104 79
0.192547 0.895445 0.222567 141 109 80
0.183230 0.888199 0.230849 142 112 80
0.177019 0.888199 0.234990 152 121 85
0.180124 0.886128 0.232919 144 113 81
0.180124 0.889234 0.233954 148 115 84
0.177019 0.891304 0.237060 153 118 84
0.180124 0.892340 0.236025 155 118 90
0.183230 0.891304 0.232919 147 116 85
0.179089 0.895445 0.237060 157 122 94
0.177019 0.898551 0.239130 158 122 96
0.180124 0.898551 0.237060 155 120 96
0.179089 0.901656 0.239130 155 118 91
0.182195 0.895445 0.234990 152 119 92
0.183230 0.898551 0.234990 155 119 96
0.184265 0.901656 0.234990 156 118 94
0.187371 0.886128 0.224638 135 106 76
0.188406 0.889234 0.225673 141 111 80
0.186335 0.887164 0.227743 139 111 79
0.186335 0.890269 0.228778 145 114 82
0.186335 0.893375 0.230849 151 117 88
0.190476 0.893375 0.224638 143 112 84
0.189441 0.892340 0.227743 146 113 87
0.187371 0.896480 0.230849 152 117 89
0.188406 0.899586 0.229814 152 116 91
0.190476 0.896480 0.226708 145 112 84
0.192547 0.898551 0.224638 144 110 83
0.192547 0.901656 0.225673 144 109 81
0.191511 0.901656 0.228778 148 114 86
0.186335 0.899586 0.232919 155 118 93
0.180124 0.904762 0.239130 154 117 91
0.183230 0.904762 0.236025 156 117 95
0.181159 0.907867 0.239130 156 116 93
0.184265 0.907867 0.236025 155 117 93
0.182195 0.910973 0.239130 157 115 92
0.183230 0.914079 0.238095 157 115 92
0.183230 0.917184 0.239130 156 112 88
0.188406 0.902691 0.230849 152 115 90
0.192547 0.904762 0.226708 143 109 79
0.189441 0.905797 0.230849 151 115 89
0.190476 0.908903 0.230849 148 112 85
0.192547 0.907867 0.227743 143 108 81
0.186335 0.904762 0.233954 155 119 93
0.187371 0.907867 0.233954 152 116 89
0.191511 0.912008 0.230849 144 110 83
0.192547 0.915114 0.230849 146 112 86
0.186335 0.910973 0.234990 152 113 91
0.187371 0.914079 0.234990 153 114 90
0.188406 0.917184 0.234990 153 111 88
0.189441 0.910973 0.233954 149 113 87
0.191511 0.918219 0.232919 145 108 85
0.161491 0.896480 0.240166 118 93 68
0.162526 0.899586 0.242236 134 102 76
0.164596 0.895445 0.241201 128 99 70
0.166667 0.897516 0.243271 135 107 77
0.164596 0.901656 0.244306 157 118 94
0.167702 0.900621 0.244306 155 120 94
0.169772 0.895445 0.241201 138 108 77
0.171843 0.897516 0.243271 145 114 83
0.170807 0.901656 0.244306 161 124 99
0.172878 0.895445 0.240166 152 121 88
0.173913 0.900621 0.242236 154 119 93
0.162526 0.904762 0.245342 169 123 104
0.160455 0.907867 0.245342 181 131 114
0.163561 0.907867 0.246377 184 134 116
0.165631 0.904762 0.246377 175 130 109
0.166667 0.907867 0.247412 187 136 115
0.161491 0.910973 0.246377 195 141 125
0.161491 0.914079 0.245342 196 145 128
0.161491 0.918219 0.244306 176 125 110
0.164596 0.910973 0.247412 191 139 120
0.164596 0.914079 0.246377 192 139 121
0.167702 0.910973 0.246377 188 137 117
0.164596 0.917184 0.245342 191 140 122
0.167702 0.915114 0.246377 189 137 118
0.167702 0.918219 0.245342 182 133 113
0.168737 0.903727 0.246377 171 127 103
0.171843 0.904762 0.244306 165 125 98
0.169772 0.906832 0.246377 176 125 102
0.171843 0.909938 0.245342 175 126 101
0.175983 0.903727 0.241201 157 121 96
0.174948 0.906832 0.243271 163 121 97
0.175983 0.909938 0.243271 164 120 96
0.171843 0.914079 0.245342 179 128 102
0.170807 0.917184 0.245342 178 126 104
0.175983 0.914079 0.243271 163 116 93
0.175983 0.918219 0.243271 164 116 94
0.178054 0.906832 0.241201 157 118 95
0.179089 0.909938 0.241201 158 117 94
0.179089 0.914079 0.241201 159 115 90
0.179089 0.918219 0.241201 154 110 88
0.194617 0.886128 0.209110 139 108 80
0.195652 0.889234 0.209110 140 108 80
0.194617 0.889234 0.212215 128 93 70
0.196687 0.892340 0.209110 140 109 80
0.194617 0.892340 0.213251 131 97 73
0.194617 0.893375 0.216356 134 102 77
0.196687 0.895445 0.211180 132 99 73
0.195652 0.896480 0.214286 132 98 72
0.196687 0.899586 0.214286 131 97 73
0.198758 0.895445 0.208075 141 110 80
0.198758 0.898551 0.209110 140 107 77
0.199793 0.901656 0.210145 140 109 79
0.194617 0.896480 0.218426 136 102 74
0.195652 0.899586 0.217391 135 102 76
0.194617 0.899586 0.220497 139 104 75
0.202899 0.901656 0.209110 137 110 84
0.198758 0.902691 0.213251 129 96 73
0.196687 0.902691 0.217391 135 103 77
0.194617 0.902691 0.222567 141 107 76
0.196687 0.904762 0.220497 138 104 75
0.199793 0.904762 0.216356 113 84 62
0.198758 0.907867 0.220497 139 106 79
0.199793 0.910973 0.222567 141 109 79
0.204969 0.904762 0.210145 136 111 88
0.201863 0.903727 0.212215 124 95 72
0.204969 0.904762 0.214286 104 80 57
0.208075 0.904762 0.209110 134 111 89
0.208075 0.905797 0.212215 127 104 81
0.202899 0.905797 0.217391 92 70 46
0.201863 0.908903 0.219462 114 82 57
0.204969 0.907867 0.219462 145 112 89
0.207039 0.904762 0.217391 105 81 56
0.208075 0.907867 0.220497 163 125 100
0.202899 0.912008 0.220497 128 99 70
0.202899 0.915114 0.222567 142 110 82
0.204969 0.918219 0.222567 153 122 94
0.206004 0.910973 0.220497 148 110 89
0.207039 0.914079 0.220497 136 90 72
0.209110 0.917184 0.218426 127 84 75
0.195652 0.905797 0.223602 139 105 76
0.195652 0.908903 0.224638 140 106 75
0.195652 0.912008 0.226708 140 106 76
0.194617 0.918219 0.230849 144 111 88
0.195652 0.915114 0.228778 143 111 83
0.198758 0.914079 0.224638 137 104 73
0.197723 0.917184 0.226708 131 100 75
0.200828 0.917184 0.224638 137 105 79
0.210145 0.906832 0.207039 123 100 79
0.211180 0.906832 0.210145 122 100 79
0.213251 0.909938 0.209110 107 82 67
0.211180 0.906832 0.214286 109 85 65
0.213251 0.908903 0.212215 116 92 75
0.216356 0.909938 0.212215 117 93 76
0.210145 0.905797 0.217391 98 73 53
0.213251 0.907867 0.217391 89 63 43
0.211180 0.909938 0.219462 162 119 94
0.216356 0.909938 0.216356 96 69 53
0.216356 0.912008 0.209110 96 76 60
0.210145 0.913043 0.219462 168 126 99
0.213251 0.914079 0.219462 149 101 83
0.212215 0.918219 0.218426 118 75 63
0.217391 0.913043 0.218426 115 80 60
0.214286 0.910973 0.219462 152 111 88
0.215321 0.917184 0.219462 140 94 82
0.219462 0.914079 0.209110 87 70 58
0.218426 0.912008 0.214286 114 88 75
0.219462 0.917184 0.208075 78 65 55
0.219462 0.915114 0.212215 100 79 65
0.220497 0.918219 0.211180 93 75 65
0.223602 0.918219 0.209110 52 45 40
0.220497 0.914079 0.216356 109 82 68
0.220497 0.917184 0.215321 105 81 64
0.220497 0.918219 0.218426 102 74 63
0.218426 0.916149 0.220497 152 104 85
0.126294 0.920290 0.207039 195 138 123
0.126294 0.919255 0.210145 197 141 125
0.126294 0.931677 0.209110 115 98 84
0.125259 0.934783 0.209110 164 140 120
0.126294 0.932712 0.212215 134 115 99
0.126294 0.934783 0.215321 142 119 104
0.125259 0.937888 0.208075 105 90 89
0.125259 0.935818 0.212215 140 114 103
0.126294 0.938923 0.211180 106 98 95
0.126294 0.940994 0.208075 189 152 134
0.127329 0.922360 0.210145 152 105 91
0.127329 0.919255 0.213251 187 129 116
0.128364 0.922360 0.213251 133 96 80
0.127329 0.923395 0.207039 159 111 97
0.127329 0.926501 0.208075 139 103 91
0.127329 0.925466 0.211180 148 118 102
0.128364 0.925466 0.214286 123 88 84
0.128364 0.919255 0.216356 181 125 112
0.130435 0.922360 0.216356 130 93 77
0.131470 0.919255 0.218426 172 120 107
0.132505 0.922360 0.219462 135 94 83
0.133540 0.921325 0.222567 165 120 104
0.131470 0.926501 0.216356 84 58 60
0.134576 0.924431 0.221532 137 106 94
0.127329 0.928571 0.212215 77 70 69
0.128364 0.928571 0.215321 64 52 54
0.130435 0.930642 0.217391 55 50 50
0.127329 0.931677 0.215321 95 82 72
0.128364 0.933747 0.218426 138 115 95
0.130435 0.933747 0.221532 107 84 70
0.133540 0.928571 0.218426 81 67 68
0.134576 0.928571 0.221532 103 84 74
0.133540 0.931677 0.221532 123 101 79
0.134576 0.920290 0.225673 172 121 105
0.134576 0.919255 0.228778 186 134 118
0.134576 0.930642 0.224638 124 95 73
0.131470 0.934783 0.224638 70 62 59
0.134576 0.931677 0.227743 124 97 77
0.133540 0.934783 0.227743 100 83 70
0.134576 0.934783 0.230849 155 122 99
0.135611 0.922360 0.228778 171 118 103
0.135611 0.923395 0.224638 152 111 96
0.135611 0.926501 0.225673 139 103 88
0.136646 0.925466 0.228778 150 104 86
0.135611 0.920290 0.231884 195 143 128
0.137681 0.921325 0.234990 199 151 137
0.136646 0.923395 0.231884 191 141 126
0.137681 0.926501 0.231884 182 138 119
0.140787 0.920290 0.236025 181 130 117
0.139752 0.924431 0.233954 193 150 135
0.142857 0.923395 0.236025 158 115 99
0.141822 0.926501 0.236025 155 117 100
0.136646 0.929607 0.229814 151 117 92
0.137681 0.929607 0.232919 169 132 112
0.136646 0.932712 0.232919 166 132 111
0.138716 0.934783 0.234990 169 134 117
0.140787 0.929607 0.234990 167 132 113
0.141822 0.932712 0.236025 150 122 99
0.127329 0.937888 0.214286 90 87 89
0.127329 0.942029 0.211180 202 160 141
0.128364 0.942029 0.214286 200 156 136
0.127329 0.936853 0.218426 73 72 75
0.128364 0.938923 0.221532 157 135 117
0.128364 0.939959 0.217391 174 146 126
0.128364 0.943064 0.218426 191 150 129
0.129400 0.942029 0.221532 183 145 123
0.127329 0.945135 0.208075 194 147 128
0.128364 0.945135 0.211180 194 149 128
0.128364 0.946170 0.214286 192 147 127
0.128364 0.948240 0.208075 186 143 122
0.129400 0.951346 0.210145 189 146 124
0.129400 0.949275 0.213251 187 143 123
0.129400 0.946170 0.217391 192 148 127
0.130435 0.945135 0.221532 191 147 125
0.129400 0.949275 0.218426 189 144 123
0.130435 0.948240 0.222567 188 142 120
0.130435 0.951346 0.221532 187 142 120
0.130435 0.937888 0.224638 127 112 100
0.130435 0.940994 0.225673 178 142 120
0.132505 0.937888 0.227743 153 128 108
0.134576 0.938923 0.230849 173 138 117
0.132505 0.940994 0.228778 180 140 119
0.134576 0.943064 0.230849 188 145 124
0.130435 0.944099 0.224638 188 143 121
0.131470 0.947205 0.225673 190 144 122
0.132505 0.944099 0.227743 187 143 121
0.133540 0.947205 0.228778 187 142 121
0.131470 0.951346 0.224638 185 138 118
0.133540 0.950311 0.227743 181 135 115
0.134576 0.950311 0.230849 179 137 115
0.136646 0.936853 0.232919 171 134 115
0.138716 0.938923 0.234990 177 140 121
0.136646 0.940994 0.232919 182 141 122
0.138716 0.943064 0.234990 186 145 126
0.140787 0.936853 0.237060 169 136 116
0.142857 0.938923 0.239130 175 140 121
0.140787 0.940994 0.237060 186 149 127
0.142857 0.943064 0.239130 187 146 127
0.136646 0.945135 0.232919 184 141 121
0.138716 0.947205 0.234990 187 145 126
0.137681 0.950311 0.232919 186 143 123
0.140787 0.945135 0.237060 184 143 125
0.142857 0.947205 0.239130 184 144 126
0.140787 0.949275 0.237060 181 138 120
0.143892 0.920290 0.237060 174 125 111
0.146998 0.921325 0.237060 149 107 92
0.144928 0.926501 0.237060 125 94 78
0.150104 0.921325 0.238095 137 99 86
0.148033 0.924431 0.237060 112 84 71
0.151139 0.924431 0.239130 102 76 69
0.143892 0.929607 0.237060 130 103 79
0.146998 0.928571 0.239130 122 96 74
0.144928 0.932712 0.238095 95 78 67
0.150104 0.927536 0.239130 103 84 71
0.153209 0.921325 0.239130 136 105 90
0.143892 0.935818 0.239130 136 117 99
0.143892 0.950311 0.239130 183 139 123
0.146998 0.932712 0.241201 76 68 64
0.150104 0.930642 0.241201 123 100 79
0.149068 0.934783 0.243271 75 70 69
0.153209 0.926501 0.241201 63 48 48
0.155280 0.923395 0.241201 114 81 77
0.156315 0.920290 0.241201 128 94 78
0.158385 0.922360 0.243271 132 101 93
0.156315 0.926501 0.242236 59 46 48
0.159420 0.925466 0.244306 86 76 75
0.153209 0.929607 0.242236 93 80 71
0.155280 0.930642 0.245342 133 115 98
0.152174 0.932712 0.243271 91 71 58
0.154244 0.934783 0.245342 69 68 71
0.158385 0.928571 0.245342 87 77 71
0.157350 0.932712 0.247412 123 101 87
0.145963 0.936853 0.242236 155 131 111
0.144928 0.940994 0.241201 184 146 127
0.149068 0.938923 0.243271 173 140 118
0.148033 0.942029 0.243271 189 147 128
0.151139 0.942029 0.244306 185 143 123
0.144928 0.945135 0.241201 190 148 129
0.145963 0.948240 0.241201 187 145 126
0.146998 0.951346 0.241201 184 140 124
0.149068 0.945135 0.243271 188 143 123
0.149068 0.949275 0.243271 182 137 119
0.152174 0.937888 0.244306 170 140 115
0.155280 0.938923 0.245342 184 146 124
0.154244 0.942029 0.245342 185 143 122
0.157350 0.936853 0.247412 143 126 114
0.157350 0.943064 0.245342 189 147 126
0.158385 0.939959 0.246377 192 152 132
0.152174 0.945135 0.244306 186 140 120
0.155280 0.946170 0.245342 184 138 117
0.152174 0.951346 0.243271 181 138 117
0.155280 0.949275 0.244306 181 139 117
0.158385 0.947205 0.245342 188 147 124
0.158385 0.951346 0.245342 185 149 125
0.129400 0.954451 0.209110 187 145 124
0.129400 0.952381 0.214286 186 141 121
0.129400 0.955487 0.212215 187 144 124
0.130435 0.957557 0.209110 170 132 114
0.130435 0.958592 0.212215 180 140 121
0.130435 0.952381 0.217391 187 143 122
0.130435 0.955487 0.215321 188 145 124
0.130435 0.954451 0.220497 188 144 123
0.130435 0.957557 0.218426 193 149 128
0.130435 0.959627 0.215321 189 145 125
0.131470 0.957557 0.221532 195 146 127
0.130435 0.960663 0.208075 130 103 91
0.130435 0.961698 0.211180 139 110 99
0.131470 0.963768 0.208075 115 97 89
0.131470 0.962733 0.214286 159 124 107
0.131470 0.966874 0.209110 99 88 84
0.131470 0.965838 0.212215 109 92 85
0.133540 0.967909 0.214286 99 84 79
0.131470 0.960663 0.218426 193 145 124
0.132505 0.963768 0.217391 166 128 110
0.132505 0.960663 0.221532 194 142 121
0.133540 0.963768 0.220497 183 139 117
0.134576 0.966874 0.217391 117 92 82
0.136646 0.964803 0.222567 179 129 109
0.136646 0.967909 0.220497 111 82 71
0.132505 0.954451 0.223602 190 143 124
0.133540 0.953416 0.226708 185 139 120
0.134576 0.953416 0.229814 180 138 117
0.133540 0.957557 0.224638 192 141 122
0.134576 0.956522 0.227743 186 139 118
0.134576 0.960663 0.224638 191 139 116
0.136646 0.956522 0.230849 186 138 118
0.135611 0.959627 0.227743 190 139 117
0.137681 0.959627 0.230849 190 140 119
0.138716 0.953416 0.233954 185 136 120
0.138716 0.957557 0.233954 188 138 119
0.140787 0.955487 0.236025 191 146 127
0.141822 0.952381 0.237060 183 139 122
0.141822 0.959627 0.234990 196 150 130
0.142857 0.957557 0.238095 194 150 131
0.136646 0.963768 0.225673 189 137 113
0.138716 0.962733 0.228778 192 141 118
0.137681 0.967909 0.223602 126 91 75
0.139752 0.965838 0.226708 161 113 97
0.140787 0.964803 0.230849 183 135 114
0.141822 0.967909 0.228778 121 85 74
0.139752 0.961698 0.232919 195 146 125
0.142857 0.962733 0.234990 190 143 123
0.142857 0.967909 0.231884 108 72 65
0.132505 0.969979 0.208075 93 82 79
0.134576 0.972050 0.210145 67 61 62
0.133540 0.971014 0.213251 73 62 60
0.134576 0.973085 0.207039 71 65 67
0.134576 0.976190 0.209110 72 69 72
0.134576 0.974120 0.213251 63 60 61
0.134576 0.976190 0.216356 60 56 59
0.134576 0.977226 0.212215 76 72 74
0.134576 0.979296 0.215321 77 74 78
0.135611 0.969979 0.216356 76 62 60
0.136646 0.971014 0.219462 65 51 49
0.138716 0.971014 0.222567 62 46 44
0.136646 0.974120 0.218426 51 49 51
0.137681 0.974120 0.221532 47 44 45
0.135611 0.979296 0.209110 88 84 86
0.135611 0.980331 0.212215 88 84 90
0.136646 0.982402 0.209110 85 80 84
0.136646 0.983437 0.212215 81 76 76
0.135611 0.979296 0.218426 62 60 61
0.136646 0.978261 0.221532 53 51 53
0.135611 0.982402 0.215321 71 69 71
0.136646 0.982402 0.218426 65 61 63
0.137681 0.981366 0.221532 57 54 56
0.138716 0.984472 0.220497 78 73 72
0.138716 0.974120 0.224638 49 44 48
0.139752 0.969979 0.225673 71 48 47
0.140787 0.972050 0.228778 52 48 48
0.139752 0.975155 0.227743 47 44 47
0.140787 0.975155 0.230849 47 44 45
0.142857 0.972050 0.231884 49 46 48
0.142857 0.975155 0.233954 47 45 46
0.138716 0.978261 0.224638 53 50 50
0.138716 0.982402 0.224638 51 48 48
0.140787 0.978261 0.228778 53 50 51
0.142857 0.980331 0.230849 54 50 51
0.141822 0.984472 0.224638 67 63 61
0.140787 0.981366 0.227743 51 47 48
0.142857 0.984472 0.227743 59 56 56
0.144928 0.953416 0.239130 188 146 129
0.145963 0.956522 0.239130 194 152 132
0.145963 0.959627 0.238095 194 149 132
0.145963 0.962733 0.237060 161 116 104
0.143892 0.965838 0.234990 125 85 76
0.146998 0.965838 0.238095 74 57 53
0.144928 0.968944 0.234990 60 51 48
0.143892 0.972050 0.234990 52 48 49
0.146998 0.969979 0.238095 49 43 44
0.145963 0.974120 0.237060 53 50 52
0.149068 0.973085 0.239130 59 57 58
0.149068 0.976190 0.238095 54 51 52
0.144928 0.983437 0.230849 57 54 54
0.148033 0.984472 0.229814 72 67 66
