ply
format ascii 1.0
element vertex 1266
property float x
property float y
property float z
property uchar red
property uchar green
property uchar blue
end_header
0.038066 0.707819 0.146091 105 98 96
0.036008 0.707819 0.150206 103 96 93
0.038066 0.711934 0.145062 96 88 83
0.036008 0.711934 0.149177 94 86 81
0.037037 0.716049 0.146091 95 88 84
0.037037 0.720165 0.146091 117 112 112
0.038066 0.662551 0.179012 100 91 87
0.038066 0.662551 0.183128 110 101 97
0.040123 0.658436 0.177984 98 90 85
0.040123 0.658436 0.182099 103 95 92
0.041152 0.657407 0.186214 93 85 80
0.042181 0.657407 0.190329 94 87 83
0.039095 0.662551 0.187243 116 108 104
0.040123 0.662551 0.191358 107 97 92
0.037037 0.666667 0.179012 113 105 103
0.037037 0.666667 0.183128 119 111 107
0.036008 0.670782 0.179012 117 109 107
0.036008 0.670782 0.183128 116 108 104
0.038066 0.666667 0.187243 123 114 110
0.037037 0.670782 0.187243 135 126 123
0.038066 0.668724 0.191358 119 111 108
0.042181 0.659465 0.194444 109 99 94
0.042181 0.662551 0.197531 105 94 86
0.040123 0.665638 0.194444 107 98 92
0.041152 0.665638 0.199588 110 102 98
0.039095 0.670782 0.194444 116 108 105
0.041152 0.669753 0.197531 116 108 105
0.042181 0.666667 0.203704 99 90 84
0.041152 0.669753 0.201646 100 91 85
0.042181 0.670782 0.205761 130 123 122
0.044239 0.658436 0.197531 101 91 83
0.044239 0.658436 0.201646 114 105 100
0.045267 0.658436 0.205761 104 93 85
0.043210 0.662551 0.201646 105 94 87
0.044239 0.662551 0.205761 102 91 84
0.044239 0.666667 0.207819 121 113 111
0.034979 0.673868 0.176955 126 118 115
0.036008 0.674897 0.181070 119 111 108
0.036008 0.679012 0.179012 81 74 70
0.036008 0.679012 0.183128 88 78 71
0.037037 0.674897 0.185185 113 105 101
0.038066 0.672840 0.190329 115 106 103
0.037037 0.679012 0.187243 119 110 107
0.038066 0.676955 0.190329 114 107 104
0.034979 0.683128 0.179012 101 93 90
0.036008 0.683128 0.183128 89 79 72
0.034979 0.687243 0.176955 130 123 121
0.034979 0.687243 0.181070 94 86 81
0.036008 0.683128 0.187243 86 78 72
0.037037 0.681070 0.191358 102 95 92
0.034979 0.686214 0.185185 81 73 68
0.036008 0.685185 0.191358 92 86 83
0.038066 0.677984 0.194444 104 97 95
0.040123 0.674897 0.195473 102 96 94
0.040123 0.672840 0.199588 117 111 109
0.039095 0.676955 0.198560 120 113 111
0.041152 0.673868 0.203704 124 116 112
0.042181 0.674897 0.207819 139 131 129
0.040123 0.679012 0.201646 121 114 111
0.041152 0.677984 0.205761 110 99 92
0.037037 0.683128 0.195473 102 94 90
0.038066 0.681070 0.198560 112 103 100
0.036008 0.687243 0.195473 100 90 84
0.038066 0.685185 0.198560 116 110 108
0.038066 0.687243 0.202675 121 112 109
0.039095 0.683128 0.201646 117 109 106
0.040123 0.683128 0.205761 117 108 105
0.040123 0.687243 0.206790 117 110 107
0.046296 0.659465 0.209877 109 97 90
0.046296 0.662551 0.212963 112 102 96
0.048354 0.656379 0.210905 136 127 123
0.048354 0.658436 0.215021 137 128 125
0.049383 0.658436 0.219136 123 114 110
0.048354 0.662551 0.217078 112 104 99
0.050412 0.660494 0.222222 110 102 97
0.045267 0.666667 0.211934 126 118 115
0.044239 0.670782 0.209877 134 127 125
0.046296 0.668724 0.215021 122 115 114
0.048354 0.666667 0.218107 106 98 94
0.049383 0.664609 0.221193 116 108 105
0.047325 0.670782 0.218107 119 110 107
0.049383 0.668724 0.221193 129 122 121
0.050412 0.670782 0.224280 102 92 84
0.042181 0.680041 0.208848 131 124 122
0.042181 0.683128 0.211934 104 94 86
0.041152 0.687243 0.210905 118 109 106
0.042181 0.686214 0.215021 118 110 107
0.042181 0.687243 0.219136 105 96 90
0.044239 0.674897 0.211934 140 132 131
0.046296 0.672840 0.215021 124 117 114
0.044239 0.679012 0.211934 137 129 127
0.046296 0.676955 0.215021 138 130 128
0.047325 0.674897 0.218107 131 124 121
0.049383 0.672840 0.221193 139 132 130
0.050412 0.674897 0.224280 101 92 87
0.047325 0.679012 0.218107 122 114 112
0.048354 0.676955 0.221193 129 122 120
0.044239 0.682099 0.215021 109 100 95
0.045267 0.682099 0.219136 106 96 90
0.046296 0.682099 0.223251 125 116 112
0.044239 0.686214 0.222222 126 118 115
0.048354 0.679012 0.225309 103 94 88
0.050412 0.675926 0.228395 107 99 96
0.049383 0.679012 0.230453 103 91 81
0.046296 0.685185 0.226337 132 123 121
0.048354 0.682099 0.228395 103 93 87
0.050412 0.682099 0.232510 114 105 100
0.048354 0.685185 0.231481 130 122 119
0.050412 0.685185 0.235597 118 108 103
0.033951 0.691358 0.176955 109 101 97
0.033951 0.691358 0.181070 114 105 102
0.032922 0.695473 0.179012 125 117 114
0.032922 0.694444 0.183128 92 81 73
0.033951 0.690329 0.185185 131 123 120
0.032922 0.695473 0.187243 93 82 74
0.033951 0.692387 0.189300 111 102 97
0.031893 0.699588 0.179012 108 99 94
0.031893 0.699588 0.183128 115 107 105
0.031893 0.703704 0.176955 115 108 105
0.031893 0.703704 0.181070 116 108 106
0.032922 0.699588 0.187243 102 93 88
0.032922 0.696502 0.191358 109 101 97
0.031893 0.703704 0.185185 123 116 114
0.031893 0.701646 0.190329 117 110 108
0.033951 0.693416 0.193416 114 105 100
0.033951 0.697531 0.195473 97 89 83
0.033951 0.699588 0.199588 115 107 106
0.031893 0.702675 0.194444 127 121 119
0.032922 0.703704 0.198560 111 104 101
0.033951 0.702675 0.202675 112 104 102
0.030864 0.706790 0.179012 124 117 115
0.030864 0.706790 0.183128 126 120 118
0.030864 0.710905 0.177984 126 120 118
0.030864 0.710905 0.182099 124 117 115
0.030864 0.707819 0.187243 129 122 121
0.031893 0.705761 0.190329 128 122 121
0.031893 0.711934 0.186214 145 138 137
0.031893 0.709877 0.190329 132 123 121
0.030864 0.715021 0.179012 155 146 144
0.031893 0.715021 0.183128 157 148 147
0.032922 0.718107 0.177984 135 125 121
0.033951 0.718107 0.182099 146 137 135
0.033951 0.715021 0.187243 126 116 112
0.033951 0.712963 0.191358 121 112 108
0.031893 0.706790 0.194444 134 127 126
0.032922 0.707819 0.198560 140 132 131
0.032922 0.710905 0.194444 147 138 136
0.033951 0.706790 0.202675 121 112 108
0.034979 0.688272 0.189300 99 92 88
0.036008 0.691358 0.196502 92 81 73
0.037037 0.689300 0.199588 94 83 74
0.034979 0.694444 0.198560 105 96 91
0.037037 0.691358 0.203704 110 102 98
0.038066 0.691358 0.207819 116 108 105
0.036008 0.695473 0.202675 115 108 105
0.037037 0.695473 0.206790 115 108 106
0.034979 0.699588 0.204733 108 100 96
0.036008 0.701646 0.207819 132 124 122
0.036008 0.720165 0.179012 112 100 97
0.038066 0.719136 0.182099 103 94 89
0.036008 0.716049 0.190329 137 126 121
0.037037 0.717078 0.185185 116 104 100
0.040123 0.720165 0.185185 121 113 110
0.039095 0.718107 0.188272 95 86 82
0.040123 0.720165 0.191358 128 120 118
0.034979 0.711934 0.197531 123 114 110
0.034979 0.704733 0.205761 117 108 104
0.037037 0.707819 0.206790 117 107 102
0.036008 0.709877 0.200617 131 122 119
0.038066 0.710905 0.203704 126 116 112
0.040123 0.710905 0.207819 132 122 118
0.036008 0.713992 0.194444 133 124 121
0.038066 0.712963 0.199588 128 118 114
0.039095 0.716049 0.193416 96 85 78
0.041152 0.715021 0.196502 96 86 80
0.041152 0.720165 0.195473 139 130 127
0.042181 0.717078 0.199588 95 87 84
0.041152 0.713992 0.201646 102 91 84
0.044239 0.715021 0.203704 105 96 92
0.043210 0.712963 0.206790 98 86 79
0.046296 0.716049 0.206790 107 98 94
0.043210 0.720165 0.201646 132 124 121
0.045267 0.719136 0.204733 99 91 87
0.047325 0.720165 0.207819 106 98 95
0.038066 0.693416 0.211934 116 108 105
0.040123 0.690329 0.212963 118 111 108
0.040123 0.693416 0.216049 130 122 120
0.041152 0.691358 0.219136 126 118 115
0.042181 0.691358 0.223251 132 123 120
0.040123 0.695473 0.220165 116 107 103
0.042181 0.695473 0.224280 129 122 120
0.037037 0.697531 0.210905 114 107 104
0.038066 0.697531 0.215021 116 108 104
0.037037 0.701646 0.211934 132 123 120
0.039095 0.701646 0.216049 122 113 109
0.040123 0.699588 0.219136 124 114 109
0.041152 0.699588 0.223251 142 132 128
0.041152 0.703704 0.219136 131 120 114
0.043210 0.702675 0.222222 141 130 126
0.044239 0.689300 0.226337 132 123 120
0.046296 0.688272 0.229424 120 111 107
0.045267 0.691358 0.231481 110 101 97
0.043210 0.693416 0.227366 127 119 117
0.044239 0.695473 0.230453 103 92 84
0.048354 0.689300 0.232510 129 121 118
0.046296 0.693416 0.234568 116 107 101
0.048354 0.690329 0.236626 115 107 104
0.050412 0.691358 0.239712 113 107 104
0.048354 0.694444 0.237654 95 86 81
0.050412 0.695473 0.240741 99 90 85
0.043210 0.697531 0.227366 134 125 122
0.045267 0.699588 0.230453 103 91 82
0.043210 0.701646 0.226337 133 123 120
0.046296 0.702675 0.228395 99 89 82
0.047325 0.702675 0.232510 102 92 88
0.046296 0.697531 0.233539 111 98 89
0.048354 0.698560 0.236626 125 116 112
0.050412 0.699588 0.239712 97 90 88
0.049383 0.702675 0.236626 96 89 86
0.038066 0.705761 0.209877 119 107 100
0.038066 0.704733 0.213992 123 113 108
0.040123 0.707819 0.212963 96 86 79
0.042181 0.706790 0.216049 116 106 100
0.043210 0.709877 0.211934 128 118 114
0.046296 0.711934 0.209877 95 84 76
0.045267 0.708848 0.215021 110 101 95
0.048354 0.710905 0.213992 95 85 81
0.044239 0.705761 0.220165 124 114 109
0.045267 0.705761 0.224280 118 109 105
0.047325 0.707819 0.219136 83 72 66
0.048354 0.707819 0.223251 86 78 73
0.050412 0.709877 0.217078 73 64 58
0.049383 0.713992 0.208848 106 97 93
0.050412 0.718107 0.209877 102 94 91
0.048354 0.705761 0.227366 92 84 79
0.049383 0.705761 0.231481 93 85 82
0.043210 0.720165 0.240741 96 92 91
0.050412 0.716049 0.240741 81 78 78
0.047325 0.720165 0.238683 85 81 81
0.050412 0.722222 0.124486 105 97 93
0.050412 0.726337 0.124486 90 81 76
0.050412 0.730453 0.125514 85 79 75
0.042181 0.723251 0.137860 104 98 96
0.039095 0.724280 0.141975 116 111 111
0.042181 0.727366 0.136831 88 82 80
0.040123 0.728395 0.140947 136 129 129
0.042181 0.731481 0.139918 152 142 140
0.046296 0.722222 0.131687 86 79 74
0.046296 0.726337 0.131687 108 103 102
0.048354 0.721193 0.127572 110 103 101
0.048354 0.725309 0.127572 86 79 74
0.044239 0.724280 0.134774 104 98 96
0.046296 0.730453 0.131687 122 117 117
0.048354 0.729424 0.128601 112 106 106
0.048354 0.733539 0.129630 155 147 147
0.050412 0.734568 0.126543 131 120 114
0.047325 0.733539 0.133745 153 144 141
0.049383 0.736625 0.131687 122 113 109
0.044239 0.730453 0.135802 112 103 99
0.045267 0.733539 0.137860 126 113 105
0.045267 0.733539 0.141975 140 128 123
0.048354 0.736625 0.135802 117 107 101
0.048354 0.734568 0.139918 105 95 90
0.033951 0.723251 0.150206 125 119 119
0.032922 0.722222 0.154321 123 116 115
0.032922 0.724280 0.158436 124 116 113
0.033951 0.726337 0.153292 133 126 125
0.032922 0.724280 0.162551 113 101 95
0.032922 0.722222 0.166667 137 128 124
0.033951 0.722222 0.170782 135 125 123
0.036008 0.724280 0.146091 114 109 108
0.038066 0.727366 0.144033 130 123 122
0.036008 0.727366 0.149177 136 127 126
0.037037 0.728395 0.154321 129 119 118
0.034979 0.727366 0.157407 138 129 125
0.039095 0.728395 0.158436 90 82 79
0.038066 0.730453 0.150206 141 132 129
0.039095 0.730453 0.146091 130 121 119
0.042181 0.732510 0.144033 152 141 136
0.042181 0.731481 0.148148 115 105 104
0.042181 0.730453 0.152263 97 88 83
0.042181 0.729424 0.156379 90 81 78
0.046296 0.732510 0.146091 91 80 78
0.046296 0.731481 0.150206 96 89 87
0.050412 0.732510 0.147119 98 90 88
0.045267 0.731481 0.154321 98 91 88
0.043210 0.732510 0.158436 99 93 91
0.044239 0.736625 0.158436 123 117 115
0.046296 0.735597 0.155350 88 83 83
0.049383 0.733539 0.151235 100 93 90
0.036008 0.726337 0.161523 91 79 75
0.034979 0.725309 0.165638 108 97 94
0.038066 0.727366 0.164609 83 75 73
0.037037 0.724280 0.168724 106 97 94
0.038066 0.722222 0.172840 111 101 96
0.038066 0.726337 0.172840 111 105 104
0.040123 0.727366 0.168724 109 103 102
0.042181 0.729424 0.160494 89 82 80
0.040123 0.731481 0.166667 88 84 84
0.042181 0.732510 0.163580 86 82 82
0.042181 0.736625 0.162551 151 144 143
0.040123 0.735597 0.166667 147 139 138
0.038066 0.730453 0.170782 94 89 88
0.037037 0.729424 0.174897 99 95 94
0.038066 0.734568 0.170782 144 137 136
0.037037 0.733539 0.174897 139 131 129
0.046296 0.739712 0.157407 111 105 103
0.046296 0.743827 0.157407 112 107 107
0.048354 0.738683 0.154321 130 122 121
0.050412 0.741770 0.152263 102 96 95
0.049383 0.744856 0.154321 112 107 107
0.045267 0.747942 0.158436 121 115 114
0.045267 0.752058 0.158436 118 112 111
0.049383 0.748971 0.154321 114 108 107
0.049383 0.753086 0.154321 118 111 110
0.040123 0.740741 0.166667 124 118 117
0.040123 0.744856 0.165638 122 116 115
0.042181 0.741770 0.163580 119 114 114
0.038066 0.738683 0.170782 122 115 114
0.036008 0.738683 0.174897 124 117 115
0.038066 0.742798 0.169753 121 115 113
0.036008 0.742798 0.173868 123 117 116
0.042181 0.746914 0.162551 126 120 120
0.040123 0.748971 0.165638 127 121 121
0.042181 0.751029 0.162551 122 116 116
0.040123 0.753086 0.165638 130 124 124
0.038066 0.746914 0.168724 131 125 126
0.036008 0.746914 0.172840 126 120 119
0.038066 0.751029 0.168724 132 126 127
0.036008 0.751029 0.172840 130 123 123
0.044239 0.740741 0.160494 106 101 101
0.033951 0.759259 0.174897 116 111 110
0.045267 0.756173 0.158436 120 114 113
0.045267 0.760288 0.158436 127 120 119
0.049383 0.757202 0.154321 120 113 111
0.049383 0.761317 0.154321 122 115 113
0.046296 0.764403 0.158436 131 125 124
0.050412 0.765432 0.154321 121 114 112
0.048354 0.767490 0.157407 127 120 119
0.042181 0.755144 0.162551 123 117 117
0.039095 0.757202 0.166667 136 130 131
0.042181 0.759259 0.162551 129 122 122
0.039095 0.761317 0.166667 124 119 120
0.037037 0.754115 0.170782 130 124 125
0.034979 0.754115 0.174897 129 122 122
0.037037 0.758230 0.169753 126 120 121
0.036008 0.761317 0.171811 133 127 127
0.042181 0.763375 0.162551 136 130 130
0.040123 0.765432 0.165638 138 131 130
0.040123 0.769547 0.166667 121 114 113
0.042181 0.768519 0.163580 129 123 122
0.038066 0.764403 0.168724 140 133 131
0.034979 0.763375 0.174897 132 124 123
0.036008 0.765432 0.171811 125 119 117
0.037037 0.769547 0.170782 103 98 98
0.034979 0.767490 0.174897 108 103 102
0.045267 0.767490 0.160494 129 123 122
0.048354 0.771605 0.157407 122 115 113
0.048354 0.775720 0.158436 108 102 99
0.048354 0.779835 0.158436 168 159 157
0.049383 0.783951 0.158436 126 119 118
0.042181 0.772634 0.164609 107 101 99
0.041152 0.775720 0.166667 169 160 160
0.038066 0.773663 0.170782 158 149 148
0.036008 0.771605 0.173868 156 147 146
0.038066 0.774691 0.174897 146 138 138
0.040123 0.777778 0.170782 149 142 142
0.042181 0.779835 0.167695 137 130 130
0.039095 0.778807 0.174897 153 145 145
0.040123 0.781893 0.172840 135 128 128
0.042181 0.783951 0.169753 135 128 128
0.040123 0.786008 0.174897 122 116 115
0.044239 0.771605 0.161523 123 116 114
0.044239 0.775720 0.162551 108 103 102
0.046296 0.778807 0.161523 176 167 166
0.045267 0.780864 0.164609 133 127 126
0.046296 0.784979 0.164609 133 126 125
0.047325 0.782922 0.161523 132 125 124
0.033951 0.739712 0.187243 136 128 126
0.033951 0.739712 0.191358 137 129 127
0.033951 0.744856 0.184156 127 120 119
0.033951 0.743827 0.188272 134 127 125
0.033951 0.747942 0.179012 129 123 122
0.032922 0.748971 0.183128 121 116 115
0.033951 0.752058 0.177984 129 123 122
0.032922 0.753086 0.182099 128 121 120
0.032922 0.747942 0.187243 134 127 126
0.033951 0.746914 0.191358 134 127 125
0.031893 0.752058 0.186214 132 126 124
0.031893 0.752058 0.190329 137 130 128
0.033951 0.743827 0.194444 135 127 125
0.032922 0.747942 0.195473 135 128 125
0.033951 0.746914 0.199588 137 129 126
0.033951 0.751029 0.193416 137 129 128
0.033951 0.751029 0.197531 135 128 126
0.033951 0.751029 0.201646 134 126 125
0.033951 0.752058 0.205761 138 130 128
0.038066 0.723251 0.176955 113 104 101
0.038066 0.723251 0.181070 128 120 117
0.036008 0.728395 0.179012 111 106 105
0.036008 0.727366 0.183128 127 120 119
0.036008 0.728395 0.187243 129 122 120
0.038066 0.725309 0.186214 113 106 102
0.037037 0.728395 0.191358 126 118 116
0.040123 0.724280 0.189300 121 113 110
0.036008 0.732510 0.179012 137 130 128
0.034979 0.732510 0.183128 139 131 129
0.036008 0.736625 0.179012 131 125 124
0.034979 0.736625 0.183128 133 126 125
0.034979 0.732510 0.187243 142 133 131
0.036008 0.732510 0.191358 140 132 129
0.034979 0.736625 0.189300 134 127 125
0.041152 0.724280 0.193416 121 113 110
0.042181 0.723251 0.197531 125 115 110
0.039095 0.727366 0.194444 121 113 111
0.040123 0.728395 0.198560 125 117 114
0.042181 0.728395 0.202675 125 117 114
0.037037 0.732510 0.195473 137 128 126
0.036008 0.736625 0.193416 134 126 124
0.038066 0.734568 0.198560 134 125 122
0.040123 0.731481 0.201646 130 121 118
0.042181 0.732510 0.204733 130 122 119
0.039095 0.736625 0.201646 132 124 121
0.040123 0.735597 0.205761 132 123 120
0.043210 0.726337 0.199588 121 113 110
0.044239 0.724280 0.202675 121 112 108
0.046296 0.723251 0.205761 120 110 105
0.044239 0.727366 0.205761 121 113 110
0.044239 0.731481 0.207819 126 118 115
0.036008 0.740741 0.179012 133 126 125
0.034979 0.740741 0.183128 127 120 119
0.034979 0.744856 0.176955 128 122 122
0.036008 0.740741 0.195473 135 127 124
0.037037 0.738683 0.198560 135 127 124
0.036008 0.742798 0.199588 136 128 125
0.037037 0.739712 0.202675 134 126 124
0.037037 0.743827 0.203704 135 127 124
0.038066 0.741770 0.206790 137 128 125
0.034979 0.747942 0.203704 135 127 124
0.036008 0.746914 0.207819 134 125 122
0.031893 0.728395 0.240741 89 84 83
0.033951 0.736625 0.232510 102 98 99
0.029835 0.732510 0.240741 102 98 97
0.029835 0.736625 0.236626 107 103 103
0.026749 0.736625 0.240741 116 112 112
0.032922 0.732510 0.236626 102 99 99
0.029835 0.753086 0.224280 107 101 100
0.033951 0.746914 0.224280 105 101 101
0.033951 0.751029 0.220165 107 102 101
0.025720 0.740741 0.239712 120 115 116
0.025720 0.744856 0.237654 120 115 116
0.025720 0.751029 0.232510 100 94 91
0.024691 0.748971 0.236626 126 120 121
0.024691 0.746914 0.240741 115 109 108
0.024691 0.753086 0.235597 129 122 121
0.024691 0.751029 0.240741 119 113 113
0.029835 0.742798 0.232510 95 89 88
0.032922 0.740741 0.230453 104 100 100
0.031893 0.744856 0.228395 92 87 86
0.028807 0.740741 0.235597 108 104 104
0.029835 0.748971 0.227366 97 93 92
0.027778 0.746914 0.232510 87 80 76
0.027778 0.752058 0.228395 80 75 73
0.042181 0.734568 0.208848 127 118 116
0.042181 0.736625 0.212963 114 107 104
0.046296 0.726337 0.208848 115 107 104
0.046296 0.728395 0.212963 109 102 100
0.048354 0.722222 0.210905 114 106 103
0.050412 0.721193 0.213992 101 94 93
0.049383 0.724280 0.216049 94 88 85
0.048354 0.726337 0.219136 82 78 77
0.047325 0.728395 0.222222 68 66 65
0.044239 0.732510 0.211934 117 110 108
0.044239 0.732510 0.216049 99 94 92
0.046296 0.729424 0.217078 93 88 86
0.046296 0.732510 0.220165 80 77 76
0.043210 0.735597 0.218107 94 90 89
0.045267 0.736625 0.221193 78 74 73
0.050412 0.729424 0.224280 66 64 64
0.047325 0.734568 0.224280 72 69 69
0.036008 0.724280 0.240741 82 78 76
0.037037 0.728395 0.236626 99 96 96
0.040123 0.724280 0.238683 85 81 79
0.042181 0.726337 0.235597 94 90 88
0.038066 0.733539 0.232510 92 89 89
0.042181 0.731481 0.231481 84 81 81
0.041152 0.736625 0.228395 93 89 89
0.040123 0.729424 0.234568 97 93 92
0.044239 0.728395 0.232510 83 81 81
0.050412 0.728395 0.228395 59 58 59
0.048354 0.726337 0.232510 71 70 72
0.045267 0.724280 0.236626 86 82 82
0.050412 0.721193 0.236626 75 74 76
0.046296 0.732510 0.228395 70 69 70
0.045267 0.736625 0.227366 80 76 76
0.047325 0.729424 0.230453 72 71 72
0.038066 0.744856 0.210905 131 122 119
0.040123 0.738683 0.208848 126 118 115
0.040123 0.740741 0.212963 128 119 117
0.042181 0.739712 0.216049 110 103 101
0.040123 0.743827 0.216049 105 100 98
0.038066 0.742798 0.224280 95 90 89
0.042181 0.740741 0.220165 85 81 80
0.042181 0.740741 0.224280 95 90 89
0.039095 0.744856 0.220165 95 91 90
0.037037 0.748971 0.210905 128 120 118
0.038066 0.746914 0.215021 107 101 99
0.034979 0.752058 0.209877 133 125 122
0.036008 0.751029 0.213992 112 106 103
0.037037 0.748971 0.218107 93 89 88
0.034979 0.753086 0.217078 91 86 84
0.046296 0.738683 0.224280 82 77 76
0.037037 0.739712 0.228395 100 96 96
0.034979 0.742798 0.227366 97 93 92
0.029835 0.761317 0.183128 129 123 123
0.032922 0.757202 0.179012 121 115 114
0.031893 0.757202 0.183128 118 112 111
0.031893 0.761317 0.179012 130 124 123
0.029835 0.757202 0.188272 125 118 117
0.028807 0.761317 0.187243 133 127 127
0.028807 0.760288 0.191358 135 129 129
0.031893 0.765432 0.179012 113 107 105
0.030864 0.765432 0.183128 154 146 144
0.033951 0.769547 0.177984 142 131 129
0.031893 0.769547 0.183128 134 127 125
0.029835 0.765432 0.187243 146 136 134
0.029835 0.764403 0.191358 135 125 122
0.030864 0.769547 0.187243 133 126 125
0.030864 0.768519 0.191358 135 128 127
0.029835 0.757202 0.193416 123 116 115
0.029835 0.757202 0.197531 126 119 117
0.029835 0.761317 0.195473 136 126 123
0.031893 0.754115 0.194444 133 126 124
0.031893 0.754115 0.198560 132 125 124
0.030864 0.760288 0.199588 128 118 114
0.031893 0.757202 0.201646 136 128 125
0.032922 0.756173 0.205761 136 127 124
0.030864 0.761317 0.203704 127 120 118
0.031893 0.759259 0.207819 120 113 110
0.029835 0.767490 0.199588 126 118 116
0.030864 0.765432 0.195473 113 106 104
0.030864 0.769547 0.195473 138 130 128
0.029835 0.765432 0.203704 111 104 102
0.029835 0.764403 0.207819 130 123 120
0.028807 0.769547 0.202675 123 117 116
0.028807 0.768519 0.206790 136 129 129
0.033951 0.772634 0.181070 137 130 129
0.031893 0.773663 0.187243 141 134 133
0.030864 0.772634 0.191358 134 126 124
0.033951 0.775720 0.184156 141 133 132
0.032922 0.777778 0.187243 124 117 116
0.030864 0.776749 0.191358 105 100 100
0.033951 0.779835 0.184156 132 125 124
0.032922 0.781893 0.187243 98 93 93
0.030864 0.780864 0.191358 125 120 119
0.033951 0.784979 0.184156 92 88 88
0.031893 0.784979 0.189300 163 154 154
0.029835 0.773663 0.195473 104 99 97
0.029835 0.771605 0.199588 102 96 94
0.029835 0.777778 0.195473 127 122 122
0.027778 0.777778 0.199588 116 107 103
0.028807 0.773663 0.202675 133 125 122
0.027778 0.773663 0.206790 110 104 103
0.027778 0.777778 0.203704 109 102 100
0.026749 0.777778 0.207819 124 117 116
0.028807 0.781893 0.195473 130 122 121
0.027778 0.781893 0.199588 107 97 91
0.029835 0.784979 0.193416 124 117 116
0.027778 0.786008 0.198560 101 93 89
0.027778 0.781893 0.203704 107 101 99
0.026749 0.781893 0.207819 121 114 112
0.026749 0.786008 0.203704 121 113 111
0.026749 0.786008 0.207819 108 100 97
0.036008 0.773663 0.177984 143 136 136
0.037037 0.777778 0.177984 149 142 141
0.038066 0.781893 0.176955 157 149 150
0.036008 0.780864 0.181070 143 135 135
0.037037 0.784979 0.179012 121 115 115
0.025720 0.761317 0.224280 114 110 111
0.025720 0.765432 0.221193 109 105 105
0.025720 0.769547 0.219136 82 76 74
0.024691 0.767490 0.224280 112 108 108
0.033951 0.755144 0.211934 128 121 119
0.032922 0.756173 0.216049 107 103 103
0.031893 0.759259 0.211934 113 106 103
0.030864 0.760288 0.216049 99 94 94
0.029835 0.757202 0.220165 102 98 98
0.027778 0.757202 0.224280 108 103 103
0.028807 0.761317 0.219136 112 108 108
0.031893 0.754115 0.221193 96 92 92
0.029835 0.764403 0.211934 108 102 102
0.028807 0.765432 0.216049 105 99 98
0.028807 0.768519 0.210905 115 110 109
0.027778 0.769547 0.215021 90 85 84
0.025720 0.755144 0.231481 91 82 77
0.025720 0.759259 0.228395 87 80 77
0.024691 0.759259 0.232510 98 88 80
0.024691 0.757202 0.236626 108 100 96
0.023663 0.755144 0.240741 110 103 102
0.023663 0.761317 0.235597 95 85 78
0.023663 0.759259 0.239712 110 103 102
0.024691 0.763375 0.227366 116 111 112
0.024691 0.763375 0.231481 100 92 87
0.024691 0.767490 0.228395 127 120 119
0.023663 0.767490 0.232510 80 72 69
0.023663 0.765432 0.236626 106 98 94
0.023663 0.763375 0.240741 128 121 120
0.023663 0.769547 0.236626 97 91 88
0.023663 0.767490 0.240741 90 81 75
0.025720 0.774691 0.216049 104 99 98
0.025720 0.777778 0.212963 100 95 94
0.025720 0.773663 0.220165 77 72 70
0.024691 0.771605 0.223251 119 114 113
0.024691 0.777778 0.219136 110 104 103
0.024691 0.775720 0.223251 106 99 96
0.025720 0.781893 0.211934 96 91 89
0.025720 0.780864 0.216049 110 105 104
0.025720 0.786008 0.211934 103 97 96
0.024691 0.784979 0.216049 131 125 125
0.024691 0.781893 0.220165 110 105 104
0.024691 0.779835 0.224280 109 102 100
0.024691 0.786008 0.220165 97 90 88
0.024691 0.783951 0.224280 108 101 99
0.026749 0.773663 0.211934 99 93 90
0.023663 0.773663 0.228395 130 124 123
0.023663 0.771605 0.232510 102 96 94
0.024691 0.777778 0.228395 127 121 120
0.023663 0.775720 0.232510 110 105 105
0.024691 0.773663 0.235597 110 103 101
0.024691 0.771605 0.239712 124 117 116
0.024691 0.777778 0.235597 106 99 96
0.024691 0.775720 0.239712 134 127 127
0.024691 0.781893 0.228395 111 104 102
0.024691 0.780864 0.232510 128 121 120
0.024691 0.786008 0.228395 110 103 101
0.024691 0.784979 0.232510 129 121 120
0.024691 0.781893 0.236626 132 125 125
0.024691 0.779835 0.240741 119 111 109
0.024691 0.786008 0.236626 128 120 119
0.024691 0.783951 0.240741 133 126 125
0.058642 0.523663 0.041152 116 107 102
0.057613 0.526749 0.043210 124 113 107
0.066872 0.526749 0.034979 109 101 96
0.066872 0.530864 0.034979 119 110 104
0.061728 0.526749 0.039095 121 111 106
0.062757 0.530864 0.039095 126 115 109
0.060700 0.528807 0.042181 125 115 108
0.064815 0.523663 0.037037 114 105 100
0.061728 0.532922 0.043210 114 105 100
0.065844 0.532922 0.038066 121 111 105
0.064815 0.534979 0.041152 117 108 103
0.066872 0.538066 0.040123 117 108 103
0.065844 0.540123 0.043210 116 107 102
0.074074 0.526749 0.026749 110 102 97
0.075103 0.530864 0.025720 108 99 94
0.078189 0.526749 0.026749 79 76 75
0.077160 0.529835 0.022634 117 108 104
0.080247 0.530864 0.024691 81 77 75
0.079218 0.532922 0.021605 115 107 102
0.077160 0.533951 0.024691 107 99 94
0.079218 0.537037 0.023663 108 99 95
0.078189 0.539095 0.026749 116 106 101
0.082305 0.534979 0.022634 98 92 89
0.083333 0.531893 0.026749 70 67 67
0.082305 0.539095 0.021605 113 105 101
0.070988 0.525720 0.030864 111 102 97
0.069959 0.528807 0.032922 110 101 95
0.073045 0.528807 0.029835 108 99 93
0.068930 0.533951 0.033951 124 114 108
0.070988 0.537037 0.034979 118 109 105
0.072016 0.532922 0.030864 113 104 98
0.075103 0.533951 0.028807 108 99 93
0.074074 0.537037 0.030864 122 112 106
0.067901 0.536008 0.037037 121 111 107
0.069959 0.539095 0.038066 121 111 106
0.077160 0.524691 0.029835 67 65 66
0.080247 0.526749 0.030864 67 65 65
0.081276 0.528807 0.027778 68 66 66
0.083333 0.543210 0.022634 117 109 106
0.081276 0.541152 0.025720 120 111 106
0.081276 0.545267 0.026749 118 109 104
0.083333 0.548354 0.024691 119 111 108
0.082305 0.551440 0.026749 124 115 111
0.082305 0.555556 0.026749 120 114 112
0.073045 0.541152 0.034979 122 113 108
0.075103 0.544239 0.032922 120 110 105
0.070988 0.543210 0.039095 118 108 103
0.067901 0.543210 0.042181 116 107 103
0.068930 0.547325 0.042181 114 105 100
0.073045 0.546296 0.037037 118 109 104
0.070988 0.550412 0.041152 118 109 104
0.069959 0.553498 0.043210 115 106 101
0.075103 0.549383 0.036008 116 107 103
0.074074 0.551440 0.039095 118 109 104
0.073045 0.555556 0.039095 118 109 103
0.075103 0.553498 0.036008 117 108 103
0.077160 0.540123 0.030864 117 108 103
0.079218 0.543210 0.029835 119 110 105
0.078189 0.547325 0.030864 118 109 104
0.079218 0.551440 0.030864 116 108 103
0.078189 0.554527 0.032922 117 108 103
0.066872 0.566872 0.043210 108 100 95
0.065844 0.570988 0.043210 104 97 92
0.054527 0.583333 0.043210 115 106 100
0.058642 0.581276 0.043210 101 93 88
0.055556 0.587449 0.043210 122 111 105
0.058642 0.585391 0.042181 112 103 98
0.066872 0.576132 0.041152 107 99 94
0.063786 0.580247 0.043210 102 94 90
0.062757 0.584362 0.042181 105 96 91
0.060700 0.588477 0.041152 115 106 100
0.066872 0.581276 0.041152 105 97 93
0.065844 0.588477 0.039095 109 100 95
0.066872 0.585391 0.041152 100 92 87
0.083333 0.559671 0.026749 122 115 114
0.068930 0.558642 0.043210 108 100 95
0.067901 0.562757 0.043210 114 105 100
0.070988 0.561728 0.041152 113 104 99
0.075103 0.558642 0.037037 116 108 103
0.075103 0.562757 0.037037 110 102 97
0.069959 0.565844 0.041152 115 106 100
0.070988 0.569959 0.039095 112 103 98
0.073045 0.565844 0.038066 116 107 102
0.075103 0.568930 0.036008 110 102 97
0.077160 0.559671 0.033951 118 109 104
0.079218 0.562757 0.031893 112 104 100
0.080247 0.556584 0.029835 118 109 104
0.082305 0.562757 0.028807 117 110 108
0.077160 0.565844 0.034979 113 104 99
0.079218 0.566872 0.031893 112 104 100
0.077160 0.572016 0.033951 109 101 97
0.082305 0.567901 0.029835 116 108 105
0.080247 0.570988 0.030864 119 112 109
0.075103 0.576132 0.034979 111 102 97
0.074074 0.580247 0.034979 112 105 102
0.069959 0.574074 0.039095 114 106 101
0.069959 0.578189 0.038066 110 102 98
0.073045 0.573045 0.037037 116 107 102
0.074074 0.584362 0.034979 111 104 101
0.074074 0.588477 0.034979 112 104 101
0.070988 0.582305 0.037037 107 99 95
0.068930 0.586420 0.038066 105 97 93
0.079218 0.575103 0.031893 113 106 102
0.078189 0.579218 0.032922 116 109 105
0.083333 0.574074 0.030864 100 93 90
0.082305 0.578189 0.031893 81 75 72
0.078189 0.583333 0.033951 115 107 103
0.078189 0.587449 0.034979 87 80 76
0.082305 0.582305 0.033951 88 81 77
0.082305 0.586420 0.034979 109 100 95
0.085391 0.534979 0.025720 69 65 65
0.086420 0.538066 0.023663 69 65 64
0.084362 0.525720 0.030864 93 87 84
0.087449 0.524691 0.032922 104 96 93
0.084362 0.529835 0.029835 85 79 77
0.087449 0.528807 0.031893 103 96 93
0.090535 0.525720 0.034979 107 98 92
0.090535 0.529835 0.034979 105 95 89
0.086420 0.532922 0.028807 79 74 72
0.087449 0.537037 0.028807 71 66 63
0.088477 0.532922 0.032922 109 99 93
0.088477 0.537037 0.032922 108 98 92
0.089506 0.534979 0.036008 109 99 92
0.091564 0.533951 0.039095 72 67 64
0.089506 0.539095 0.036008 112 102 95
0.090535 0.538066 0.040123 79 72 68
0.094650 0.526749 0.034979 98 89 84
0.097737 0.524691 0.033951 112 102 96
0.097737 0.529835 0.034979 115 105 99
0.094650 0.531893 0.037037 93 84 79
0.095679 0.536008 0.039095 102 93 86
0.093621 0.539095 0.042181 91 83 77
0.098765 0.532922 0.037037 116 106 100
0.099794 0.537037 0.038066 120 109 103
0.087449 0.541152 0.025720 80 74 71
0.086420 0.545267 0.023663 99 92 88
0.086420 0.549383 0.026749 99 92 89
0.087449 0.541152 0.029835 87 81 78
0.087449 0.545267 0.027778 90 83 79
0.087449 0.544239 0.032922 102 92 86
0.088477 0.547325 0.034979 105 95 90
0.089506 0.543210 0.036008 108 98 92
0.090535 0.542181 0.040123 91 84 80
0.089506 0.546296 0.039095 102 93 88
0.091564 0.544239 0.043210 75 68 64
0.087449 0.548354 0.030864 86 78 73
0.087449 0.551440 0.033951 104 94 88
0.085391 0.553498 0.027778 119 111 108
0.086420 0.555556 0.030864 90 83 79
0.087449 0.555556 0.034979 107 97 90
0.089506 0.550412 0.037037 104 95 89
0.091564 0.549383 0.040123 83 77 73
0.089506 0.554527 0.038066 105 96 90
0.089506 0.555556 0.042181 96 87 82
0.091564 0.552469 0.043210 84 76 71
0.095679 0.543210 0.043210 102 92 87
0.095679 0.547325 0.043210 103 94 88
0.097737 0.540123 0.039095 116 105 99
0.099794 0.543210 0.040123 120 109 102
0.099794 0.546296 0.043210 120 109 102
0.095679 0.551440 0.043210 97 88 82
0.100823 0.524691 0.037037 110 100 94
0.101852 0.526749 0.040123 106 97 92
0.100823 0.528807 0.037037 113 103 97
0.102881 0.528807 0.043210 103 94 88
0.102881 0.531893 0.038066 111 102 95
0.103909 0.532922 0.042181 104 95 89
0.103909 0.537037 0.039095 118 108 102
0.105967 0.536008 0.043210 112 101 95
0.103909 0.541152 0.040123 123 112 104
0.102881 0.543210 0.043210 123 112 104
0.105967 0.540123 0.043210 120 109 102
0.086420 0.559671 0.029835 100 93 89
0.087449 0.559671 0.033951 102 93 87
0.085391 0.563786 0.030864 98 90 86
0.086420 0.563786 0.034979 104 95 89
0.087449 0.560700 0.038066 106 97 90
0.087449 0.563786 0.041152 100 91 85
0.088477 0.559671 0.042181 105 96 90
0.086420 0.567901 0.032922 97 88 83
0.085391 0.570988 0.034979 103 94 89
0.086420 0.567901 0.037037 106 97 91
0.087449 0.567901 0.041152 100 91 85
0.086420 0.572016 0.039095 102 93 88
0.087449 0.572016 0.043210 101 92 85
0.084362 0.576132 0.034979 100 91 86
0.086420 0.576132 0.039095 104 95 89
0.086420 0.576132 0.043210 99 89 83
0.085391 0.579218 0.037037 109 100 94
0.085391 0.579218 0.041152 98 89 84
0.084362 0.583333 0.037037 111 101 96
0.085391 0.583333 0.041152 101 92 87
0.084362 0.587449 0.038066 112 103 97
0.085391 0.587449 0.042181 98 89 83
0.054527 0.525720 0.046296 124 114 108
0.051440 0.524691 0.050412 124 114 108
0.053498 0.527778 0.051440 115 106 101
0.056584 0.528807 0.047325 116 107 102
0.055556 0.530864 0.050412 114 105 100
0.053498 0.530864 0.054527 113 103 97
0.058642 0.531893 0.046296 114 105 100
0.058642 0.534979 0.049383 115 106 100
0.057613 0.538066 0.051440 111 102 96
0.053498 0.534979 0.055556 111 102 97
0.052469 0.538066 0.058642 114 105 100
0.056584 0.533951 0.052469 114 105 99
0.055556 0.539095 0.054527 112 103 98
0.062757 0.536008 0.045267 117 108 102
0.061728 0.539095 0.047325 114 105 99
0.054527 0.541152 0.057613 114 105 99
0.053498 0.544239 0.059671 112 104 98
0.058642 0.541152 0.053498 114 105 100
0.057613 0.544239 0.055556 114 105 99
0.055556 0.547325 0.057613 111 103 98
0.052469 0.548354 0.059671 104 97 93
0.053498 0.551440 0.057613 105 98 93
0.054527 0.555556 0.055556 104 96 91
0.058642 0.548354 0.054527 112 103 98
0.058642 0.553498 0.053498 106 99 95
0.060700 0.542181 0.050412 114 105 100
0.062757 0.545267 0.049383 115 106 101
0.063786 0.542181 0.046296 110 101 96
0.065844 0.545267 0.045267 113 105 100
0.061728 0.547325 0.052469 113 104 99
0.061728 0.551440 0.051440 111 102 98
0.062757 0.555556 0.049383 109 101 97
0.064815 0.548354 0.047325 115 106 101
0.066872 0.551440 0.045267 113 104 100
0.065844 0.554527 0.047325 111 103 98
0.054527 0.559671 0.054527 104 96 91
0.052469 0.563786 0.053498 101 93 88
0.057613 0.557613 0.053498 105 97 93
0.056584 0.562757 0.053498 103 95 90
0.054527 0.566872 0.051440 101 93 88
0.053498 0.570988 0.049383 100 93 88
0.058642 0.565844 0.051440 104 96 91
0.057613 0.569959 0.050412 102 94 89
0.060700 0.558642 0.050412 105 97 92
0.062757 0.561728 0.048354 105 97 92
0.064815 0.558642 0.047325 110 102 97
0.062757 0.565844 0.048354 106 98 93
0.062757 0.572016 0.047325 103 95 91
0.061728 0.568930 0.050412 103 96 91
0.064815 0.568930 0.046296 106 98 93
0.053498 0.576132 0.047325 100 93 88
0.051440 0.579218 0.045267 110 102 98
0.057613 0.574074 0.047325 100 92 87
0.056584 0.577160 0.045267 99 92 87
0.052469 0.586420 0.047325 146 132 123
0.053498 0.588477 0.050412 135 122 113
0.060700 0.576132 0.046296 101 93 89
0.064815 0.575103 0.045267 102 94 89
0.053498 0.588477 0.072016 155 138 127
0.054527 0.588477 0.076132 147 131 119
0.053498 0.587449 0.080247 143 128 117
0.053498 0.587449 0.084362 133 119 110
0.057613 0.588477 0.079218 138 123 113
0.090535 0.555556 0.046296 79 72 67
0.093621 0.553498 0.047325 97 88 83
0.099794 0.550412 0.044239 119 109 102
0.097737 0.554527 0.046296 111 101 96
0.099794 0.555556 0.049383 116 106 100
0.103909 0.525720 0.045267 98 90 84
0.106996 0.526749 0.047325 103 94 89
0.105967 0.530864 0.045267 103 94 88
0.108025 0.533951 0.047325 111 102 96
0.106996 0.538066 0.046296 116 106 100
0.108025 0.537037 0.050412 90 82 77
0.109053 0.525720 0.050412 109 99 93
0.109053 0.529835 0.049383 109 100 94
0.111111 0.526749 0.053498 104 96 91
0.110082 0.530864 0.053498 88 81 77
0.112140 0.528807 0.056584 98 90 86
0.114198 0.524691 0.056584 95 88 84
0.116255 0.527778 0.058642 63 57 53
0.110082 0.534979 0.053498 94 87 83
0.112140 0.532922 0.056584 66 62 60
0.109053 0.539095 0.053498 85 80 78
0.111111 0.537037 0.056584 57 57 59
0.114198 0.531893 0.059671 59 55 54
0.113169 0.536008 0.059671 69 67 68
0.114198 0.539095 0.057613 75 74 77
0.116255 0.534979 0.061728 79 76 76
0.103909 0.544239 0.047325 118 108 102
0.102881 0.547325 0.045267 122 111 103
0.103909 0.547325 0.050412 103 94 89
0.105967 0.541152 0.048354 105 96 90
0.105967 0.544239 0.051440 98 90 86
0.106996 0.547325 0.053498 53 49 49
0.101852 0.551440 0.047325 123 112 105
0.102881 0.551440 0.051440 102 93 87
0.101852 0.555556 0.053498 105 96 91
0.106996 0.551440 0.052469 85 76 70
0.105967 0.555556 0.053498 110 98 89
0.112140 0.545267 0.051440 53 55 59
0.116255 0.545267 0.051440 52 57 63
0.109053 0.543210 0.053498 56 58 63
0.112140 0.541152 0.054527 63 63 66
0.116255 0.542181 0.054527 72 73 77
0.111111 0.549383 0.051440 53 53 57
0.115226 0.549383 0.051440 65 70 77
0.110082 0.554527 0.052469 117 104 95
0.116255 0.551440 0.054527 70 69 72
0.114198 0.554527 0.053498 133 117 105
0.114198 0.555556 0.057613 123 110 101
0.116255 0.552469 0.058642 96 89 86
0.115226 0.554527 0.061728 88 79 74
0.089506 0.559671 0.046296 85 78 74
0.091564 0.558642 0.049383 88 80 75
0.089506 0.563786 0.045267 95 87 81
0.090535 0.562757 0.049383 81 74 71
0.087449 0.569959 0.047325 95 87 81
0.089506 0.566872 0.048354 84 76 72
0.091564 0.565844 0.051440 87 79 74
0.088477 0.569959 0.051440 79 72 68
0.089506 0.572016 0.054527 86 79 74
0.095679 0.557613 0.048354 106 96 91
0.094650 0.560700 0.050412 103 94 89
0.098765 0.559671 0.050412 115 105 100
0.095679 0.563786 0.052469 112 102 96
0.099794 0.561728 0.053498 106 97 93
0.094650 0.567901 0.053498 116 106 99
0.093621 0.570988 0.055556 120 110 104
0.098765 0.565844 0.054527 94 86 82
0.097737 0.569959 0.055556 97 90 86
0.087449 0.574074 0.047325 97 89 83
0.087449 0.574074 0.051440 87 79 74
0.086420 0.578189 0.047325 100 91 85
0.087449 0.578189 0.051440 92 84 78
0.087449 0.577160 0.055556 81 73 69
0.090535 0.575103 0.056584 107 98 92
0.089506 0.578189 0.058642 91 83 80
0.085391 0.584362 0.045267 94 85 79
0.086420 0.582305 0.048354 101 92 86
0.085391 0.588477 0.046296 97 87 81
0.085391 0.587449 0.050412 101 92 86
0.086420 0.581276 0.053498 92 83 78
0.087449 0.584362 0.055556 83 76 71
0.086420 0.588477 0.054527 93 85 81
0.088477 0.582305 0.058642 74 67 63
0.091564 0.584362 0.059671 111 103 100
0.088477 0.586420 0.058642 87 79 74
0.094650 0.574074 0.057613 93 87 84
0.093621 0.578189 0.058642 100 93 90
0.097737 0.576132 0.058642 87 83 83
0.099794 0.573045 0.057613 59 59 61
0.096708 0.580247 0.059671 60 59 61
0.098765 0.584362 0.059671 43 46 51
0.090535 0.588477 0.061728 105 98 95
0.094650 0.583333 0.061728 59 57 58
0.094650 0.587449 0.061728 45 48 52
0.098765 0.588477 0.060700 51 53 57
0.102881 0.559671 0.054527 44 45 51
0.101852 0.563786 0.056584 47 48 51
0.106996 0.559671 0.054527 56 53 53
0.105967 0.562757 0.056584 50 53 58
0.101852 0.567901 0.056584 51 53 58
0.103909 0.570988 0.058642 49 52 58
0.104938 0.565844 0.058642 51 54 59
0.111111 0.557613 0.054527 129 113 100
0.112140 0.559671 0.057613 105 96 90
0.109053 0.563786 0.058642 59 63 70
0.108025 0.565844 0.061728 53 56 61
0.105967 0.569959 0.061728 53 56 62
0.108025 0.568930 0.064815 57 58 61
0.112140 0.559671 0.061728 71 66 64
0.110082 0.562757 0.062757 61 60 63
0.112140 0.561728 0.065844 88 83 82
0.116255 0.557613 0.063786 104 98 96
0.116255 0.561728 0.065844 105 101 102
0.110082 0.565844 0.065844 94 90 90
0.109053 0.572016 0.066872 61 61 63
0.112140 0.568930 0.066872 86 83 84
0.114198 0.564815 0.066872 100 96 96
0.116255 0.568930 0.066872 82 79 80
0.101852 0.576132 0.058642 48 51 55
0.100823 0.580247 0.059671 46 49 54
0.102881 0.584362 0.057613 66 64 65
0.102881 0.588477 0.058642 91 83 78
0.105967 0.583333 0.059671 72 67 65
0.104938 0.574074 0.060700 52 56 61
0.106996 0.573045 0.063786 47 50 55
0.104938 0.578189 0.060700 52 55 60
0.106996 0.577160 0.063786 45 46 50
0.106996 0.581276 0.062757 69 64 62
0.105967 0.587449 0.060700 77 70 65
0.108025 0.585391 0.063786 75 68 64
0.110082 0.575103 0.064815 53 53 54
0.112140 0.578189 0.063786 82 75 70
0.114198 0.574074 0.065844 57 57 58
0.116255 0.580247 0.063786 89 81 76
0.111111 0.582305 0.063786 90 83 80
0.109053 0.588477 0.065844 77 71 67
0.112140 0.585391 0.065844 85 78 73
0.116255 0.584362 0.064815 86 78 73
0.113169 0.588477 0.067901 89 80 75
0.056584 0.591564 0.043210 124 113 105
0.058642 0.594650 0.042181 129 118 111
0.061728 0.592593 0.041152 118 108 102
0.061728 0.596708 0.041152 130 119 112
0.065844 0.592593 0.038066 113 104 98
0.065844 0.596708 0.039095 123 114 109
0.060700 0.599794 0.043210 137 124 117
0.063786 0.600823 0.041152 129 118 112
0.064815 0.603909 0.043210 143 133 128
0.068930 0.590535 0.037037 110 102 98
0.068930 0.594650 0.037037 119 111 107
0.072016 0.592593 0.036008 112 104 101
0.073045 0.596708 0.037037 108 101 98
0.068930 0.598765 0.038066 126 116 112
0.067901 0.601852 0.040123 130 121 117
0.068930 0.604938 0.042181 112 104 101
0.072016 0.600823 0.039095 68 64 65
0.073045 0.600823 0.043210 47 45 45
0.076132 0.591564 0.036008 93 86 82
0.077160 0.595679 0.037037 88 81 77
0.080247 0.590535 0.036008 101 92 87
0.083333 0.592593 0.037037 115 105 99
0.081276 0.595679 0.036008 114 105 99
0.077160 0.599794 0.037037 119 110 106
0.077160 0.600823 0.043210 70 64 62
0.079218 0.602881 0.039095 84 77 74
0.081276 0.599794 0.037037 113 105 100
0.083333 0.600823 0.043210 97 89 84
0.080247 0.603909 0.043210 91 83 78
0.085391 0.591564 0.040123 102 93 87
0.084362 0.595679 0.039095 108 98 92
0.084362 0.593621 0.043210 95 86 80
0.084362 0.600823 0.039095 116 106 101
0.055556 0.589506 0.047325 132 119 111
0.056584 0.590535 0.051440 124 112 103
0.057613 0.592593 0.048354 114 102 94
0.057613 0.596708 0.046296 128 116 110
0.058642 0.594650 0.051440 106 95 87
0.052469 0.590535 0.055556 144 130 120
0.053498 0.590535 0.059671 152 136 125
0.056584 0.591564 0.055556 144 130 121
0.057613 0.592593 0.059671 155 139 129
0.058642 0.600823 0.047325 139 127 119
0.057613 0.598765 0.050412 116 104 96
0.058642 0.602881 0.051440 132 119 110
0.059671 0.594650 0.055556 132 118 107
0.061728 0.593621 0.059671 129 114 101
0.062757 0.596708 0.057613 118 103 92
0.061728 0.602881 0.045267 139 127 119
0.060700 0.604938 0.048354 138 125 117
0.059671 0.598765 0.054527 104 91 81
0.061728 0.600823 0.057613 107 93 80
0.059671 0.603909 0.055556 120 107 97
0.061728 0.604938 0.058642 117 104 94
0.052469 0.589506 0.063786 158 141 131
0.053498 0.589506 0.067901 160 143 132
0.056584 0.590535 0.063786 158 141 130
0.057613 0.590535 0.067901 155 138 127
0.057613 0.589506 0.072016 149 133 121
0.060700 0.591564 0.062757 148 131 120
0.061728 0.590535 0.067901 145 129 117
0.064815 0.592593 0.063786 130 114 101
0.065844 0.591564 0.067901 130 114 102
0.064815 0.595679 0.060700 126 110 98
0.066872 0.596708 0.063786 123 108 96
0.061728 0.589506 0.072016 144 128 116
0.059671 0.589506 0.076132 136 121 111
0.065844 0.590535 0.072016 126 111 100
0.063786 0.589506 0.076132 127 112 103
0.062757 0.600823 0.061728 99 86 76
0.064815 0.599794 0.064815 106 92 81
0.063786 0.603909 0.063786 104 91 81
0.066872 0.602881 0.065844 100 86 75
0.061728 0.606996 0.051440 133 121 113
0.063786 0.605967 0.046296 135 126 121
0.066872 0.608025 0.047325 105 98 94
0.064815 0.609053 0.050412 135 126 124
0.061728 0.608025 0.055556 138 125 117
0.062757 0.609053 0.059671 128 114 104
0.064815 0.610082 0.054527 133 124 121
0.065844 0.611111 0.058642 136 127 123
0.064815 0.608025 0.062757 124 110 98
0.070988 0.603909 0.045267 48 45 45
0.069959 0.604938 0.049383 57 52 51
0.074074 0.602881 0.047325 46 44 44
0.074074 0.604938 0.051440 89 82 77
0.078189 0.602881 0.046296 99 92 89
0.079218 0.604938 0.049383 114 105 100
0.083333 0.597737 0.047325 98 88 82
0.083333 0.597737 0.051440 104 94 87
0.082305 0.600823 0.049383 99 89 82
0.078189 0.604938 0.053498 104 93 86
0.082305 0.600823 0.053498 115 105 99
0.083333 0.600823 0.057613 99 90 85
0.080247 0.603909 0.056584 94 84 76
0.082305 0.604938 0.059671 112 103 98
0.067901 0.594650 0.066872 126 111 99
0.068930 0.592593 0.069959 119 104 93
0.067901 0.590535 0.076132 114 101 91
0.070988 0.592593 0.074074 112 99 89
0.069959 0.596708 0.069959 122 106 94
0.073045 0.595679 0.072016 122 106 94
0.074074 0.593621 0.076132 110 97 87
0.067901 0.598765 0.066872 112 97 85
0.070988 0.600823 0.067901 101 87 76
0.069959 0.604938 0.066872 113 100 90
0.074074 0.604938 0.067901 128 114 103
0.074074 0.599794 0.069959 105 91 80
0.075103 0.602881 0.072016 117 103 91
0.076132 0.596708 0.074074 117 102 91
0.079218 0.597737 0.076132 109 97 87
0.078189 0.600823 0.074074 113 99 87
0.077160 0.604938 0.075103 51 47 44
0.082305 0.600823 0.076132 97 87 81
0.068930 0.608025 0.051440 54 51 50
0.070988 0.606996 0.054527 55 47 43
0.068930 0.610082 0.055556 48 45 47
0.069959 0.611111 0.059671 115 105 99
0.075103 0.606996 0.054527 112 102 96
0.073045 0.609053 0.057613 100 92 87
0.077160 0.608025 0.057613 103 94 90
0.068930 0.608025 0.063786 130 115 103
0.073045 0.609053 0.063786 120 108 100
0.075103 0.610082 0.060700 118 109 104
0.077160 0.608025 0.063786 80 74 71
0.079218 0.606996 0.060700 114 107 104
0.077160 0.608025 0.067901 51 49 51
0.081276 0.608025 0.063786 47 48 53
0.081276 0.610082 0.067901 52 54 57
0.083333 0.611111 0.064815 41 43 46
0.077160 0.608025 0.072016 39 40 44
0.077160 0.609053 0.076132 49 50 53
0.079218 0.611111 0.070988 53 56 60
0.079218 0.612140 0.075103 49 51 55
0.082305 0.614198 0.067901 78 80 85
0.081276 0.614198 0.072016 41 44 50
0.082305 0.615226 0.076132 45 46 50
0.056584 0.589506 0.083333 125 112 103
0.054527 0.589506 0.087449 123 110 102
0.053498 0.591564 0.090535 126 113 105
0.056584 0.592593 0.088477 120 108 99
0.056584 0.593621 0.092593 130 117 107
0.061728 0.589506 0.080247 124 111 103
0.059671 0.591564 0.084362 115 103 95
0.065844 0.590535 0.080247 117 105 97
0.063786 0.591564 0.083333 112 101 93
0.066872 0.593621 0.084362 107 96 88
0.060700 0.593621 0.087449 118 106 97
0.060700 0.593621 0.091564 127 114 105
0.064815 0.594650 0.087449 118 106 98
0.064815 0.594650 0.091564 127 114 105
0.053498 0.592593 0.098765 141 126 116
0.057613 0.592593 0.098765 127 114 105
0.053498 0.590535 0.104938 122 112 106
0.052469 0.589506 0.109053 126 116 112
0.055556 0.591564 0.101852 120 107 98
0.057613 0.590535 0.104938 114 102 93
0.056584 0.589506 0.109053 114 104 99
0.061728 0.592593 0.099794 109 96 86
0.059671 0.593621 0.095679 131 117 109
0.063786 0.593621 0.095679 122 109 101
0.065844 0.594650 0.098765 116 106 99
0.061728 0.591564 0.103909 117 107 101
0.060700 0.591564 0.108025 105 96 92
0.064815 0.592593 0.105967 98 92 89
0.066872 0.593621 0.102881 95 88 84
0.064815 0.595679 0.109053 97 91 90
0.059671 0.601852 0.109053 103 98 98
0.066872 0.598765 0.108025 87 82 81
0.065844 0.602881 0.109053 87 83 82
0.070988 0.592593 0.078189 109 97 88
0.069959 0.592593 0.082305 111 100 92
0.073045 0.595679 0.080247 98 87 79
0.072016 0.595679 0.084362 106 95 88
0.068930 0.594650 0.087449 116 104 96
0.068930 0.595679 0.091564 120 107 99
0.073045 0.595679 0.088477 107 97 91
0.073045 0.595679 0.092593 94 86 83
0.077160 0.595679 0.080247 90 79 71
0.076132 0.595679 0.084362 102 92 85
0.081276 0.596708 0.079218 96 85 77
0.080247 0.596708 0.083333 100 90 84
0.077160 0.595679 0.088477 103 92 85
0.077160 0.596708 0.092593 105 97 93
0.081276 0.596708 0.087449 95 85 79
0.080247 0.603909 0.077160 53 51 53
0.083333 0.604938 0.079218 40 41 44
0.081276 0.597737 0.091564 96 88 84
0.068930 0.594650 0.095679 114 103 95
0.070988 0.595679 0.098765 97 89 85
0.074074 0.596708 0.096708 92 85 82
0.068930 0.596708 0.103909 92 86 84
0.073045 0.598765 0.099794 91 86 85
0.075103 0.601852 0.100823 93 88 87
0.070988 0.599794 0.104938 90 85 84
0.068930 0.604938 0.108025 87 83 82
0.073045 0.602881 0.103909 88 83 82
0.077160 0.599794 0.096708 91 85 84
0.077160 0.604938 0.099794 96 91 89
0.081276 0.599794 0.095679 91 85 84
0.080247 0.603909 0.096708 91 85 83
0.079218 0.606996 0.079218 37 38 42
0.083333 0.609053 0.079218 41 40 41
0.068930 0.609053 0.109053 92 86 85
0.069959 0.613169 0.109053 90 86 85
0.073045 0.606996 0.104938 86 81 79
0.074074 0.611111 0.104938 88 82 81
0.073045 0.614198 0.106996 87 82 81
0.072016 0.617284 0.109053 87 83 83
0.075103 0.618313 0.106996 86 82 82
0.074074 0.621399 0.109053 82 78 77
0.077160 0.609053 0.100823 93 88 87
0.079218 0.613169 0.100823 82 78 77
0.083333 0.606996 0.096708 96 90 89
0.080247 0.608025 0.098765 89 84 82
0.083333 0.611111 0.098765 89 84 83
0.082305 0.615226 0.099794 78 74 73
0.077160 0.614198 0.103909 91 86 85
0.079218 0.617284 0.104938 84 80 80
0.078189 0.621399 0.105967 81 78 77
0.081276 0.620370 0.103909 74 72 71
0.066872 0.654321 0.067901 121 116 115
0.064815 0.654321 0.072016 100 93 91
0.064815 0.654321 0.076132 97 91 89
0.070988 0.654321 0.067901 121 115 114
0.068930 0.652263 0.072016 119 113 111
0.067901 0.651235 0.076132 106 99 97
0.073045 0.651235 0.072016 105 99 97
0.075103 0.654321 0.069959 104 97 95
0.072016 0.651235 0.076132 111 104 102
