# .PCD v0.7 - Point Cloud Data file format
VERSION 0.7
FIELDS x y z
SIZE 4 4 4
TYPE F F F
COUNT 1 1 1
WIDTH 1441
HEIGHT 1
VIEWPOINT 0 0 0 1 0 0 0
POINTS 1441
DATA ascii
-0.150382 -0.018263999 -0.47649899
-0.16246501 -0.019732 -0.47245699
-0.17444099 -0.021186 -0.468104
-0.18630201 -0.022627 -0.46344301
-0.19803999 -0.024052 -0.45847699
-0.209648 -0.025462 -0.45321
-0.221119 -0.026854999 -0.447644
-0.232443 -0.028231001 -0.44178399
-0.243615 -0.029588001 -0.435633
-0.25462699 -0.030925 -0.429196
-0.26547101 -0.032242 -0.42247599
-0.27614 -0.033537999 -0.41547799
-0.28662801 -0.034812 -0.408207
-0.29692701 -0.036063001 -0.40066701
-0.30703101 -0.037289999 -0.39286301
-0.31693199 -0.038492002 -0.38480201
-0.326626 -0.039669 -0.37648699
-0.33610401 -0.040821001 -0.367924
-0.34536099 -0.041944999 -0.359119
-0.35439101 -0.043042 -0.35007799
-0.363188 -0.04411 -0.34080601
-0.371746 -0.045148998 -0.33131099
-0.380059 -0.046158999 -0.32159701
-0.38812199 -0.047138002 -0.311672
-0.39592999 -0.048087001 -0.30154201
-0.40347701 -0.049003001 -0.29121301
-0.410759 -0.049888 -0.28069201
-0.41777101 -0.050739001 -0.269988
-0.42450699 -0.051557001 -0.259105
-0.43096501 -0.052342001 -0.248052
-0.437139 -0.053091999 -0.236836
-0.44302499 -0.053807002 -0.225463
-0.44861999 -0.054485999 -0.213943
-0.45391899 -0.055130001 -0.202282
-0.45892 -0.055737 -0.190487
-0.46361899 -0.056308001 -0.17856801
-0.46801299 -0.056841001 -0.166531
-0.47209999 -0.057337999 -0.154384
-0.47587499 -0.057796001 -0.14213599
-0.47933701 -0.058217 -0.129794
-0.48248401 -0.058598999 -0.117367
-0.48531401 -0.058943 -0.104862
-0.48782399 -0.059246998 -0.092289001
-0.49001399 -0.059512999 -0.079654999
-0.49188 -0.059739999 -0.066968001
-0.493424 -0.059928 -0.054237999
-0.49464199 -0.060075998 -0.041471999
-0.495536 -0.060183998 -0.028678
-0.49610299 -0.060253002 -0.015866
-0.49634299 -0.060281999 -0.0030429999
-0.49625799 -0.060272001 0.0097820004
-0.49584499 -0.060222 0.022600999
-0.495107 -0.060132001 0.035404
-0.49404201 -0.060003001 0.048184
-0.49265301 -0.059834 0.060933001
-0.49094 -0.059625998 0.073641002
-0.48890299 -0.059379 0.086300999
-0.486545 -0.059092 0.098904997
-0.48386699 -0.058766998 0.111443
-0.48087001 -0.058403 0.123908
-0.477557 -0.058001 0.136291
-0.47393 -0.057560001 0.14858501
-0.469991 -0.057082001 0.16078
-0.46574301 -0.056566 0.17287099
-0.46118799 -0.056012001 0.184847
-0.45633 -0.055422001 0.196702
-0.45117101 -0.054795999 0.208427
-0.44571599 -0.054133002 0.220015
-0.43996799 -0.053435002 0.23145901
-0.43393001 -0.052701999 0.24275
-0.42760599 -0.051934 0.25388101
-0.421002 -0.051132001 0.264846
-0.41411999 -0.050296001 0.27563599
-0.406966 -0.049426999 0.28624499
-0.399544 -0.048526 0.29666501
-0.39185899 -0.047591999 0.30689001
-0.38391599 -0.046627998 0.31691399
-0.37572101 -0.045632001 0.32672799
-0.36727801 -0.044606999 0.336328
-0.358594 -0.043552 0.345707
-0.34967399 -0.042468999 0.35485801
-0.34052399 -0.041358002 0.363776
-0.33115 -0.040219001 0.37245399
-0.321558 -0.039053999 0.380887
-0.31175399 -0.037863001 0.38907
-0.30174601 -0.036648002 0.396997
-0.291538 -0.035408001 0.40466201
-0.28113899 -0.034145001 0.41206199
-0.27055499 -0.03286 0.41918999
-0.25979301 -0.031553 0.42604199
-0.24886 -0.030224999 0.432614
-0.237764 -0.028876999 0.43890199
-0.226511 -0.02751 0.44490001
-0.21510801 -0.026125001 0.45060599
-0.203565 -0.024723001 0.45601499
-0.19188701 -0.023305001 0.46112499
-0.18008301 -0.021872001 0.465931
-0.168161 -0.020424001 0.47042999
-0.156128 -0.018962 0.47462001
-0.14399201 -0.017488001 0.47849801
-0.131762 -0.016003 0.482061
-0.119445 -0.014507 0.48530701
-0.107049 -0.013001 0.488233
-0.094582997 -0.011487 0.49083799
-0.082053997 -0.009966 0.49312001
-0.069472 -0.0084380005 0.495078
-0.056844 -0.006904 0.49671
-0.044178002 -0.0053659999 0.498016
-0.031484 -0.003824 0.49899301
-0.018769 -0.0022789999 0.49964201
-0.0060410001 -0.000734 0.49996299
-0 -0 -0.5
-0.012766 -0.001219 -0.499836
-0.025524 -0.0024369999 -0.49934199
-0.038263999 -0.0036539999 -0.49851999
-0.050980002 -0.0048690001 -0.49737
-0.063662 -0.0060800002 -0.495893
-0.076301999 -0.0072869998 -0.49408999
-0.088891998 -0.0084889997 -0.491961
-0.101424 -0.0096859997 -0.48950899
-0.113889 -0.010876 -0.48673499
-0.126279 -0.012059 -0.483641
-0.138585 -0.013235 -0.48022801
-0.150801 -0.014401 -0.47649899
-0.162917 -0.015558 -0.47245699
-0.174927 -0.016705001 -0.468104
-0.186821 -0.017841 -0.46344301
-0.19859201 -0.018965 -0.45847699
-0.210232 -0.020076999 -0.45321
-0.221735 -0.021175001 -0.447644
-0.233091 -0.022260001 -0.44178399
-0.244294 -0.023329999 -0.435633
-0.25533599 -0.024383999 -0.429196
-0.26620999 -0.025423 -0.42247599
-0.27690899 -0.026443999 -0.41547799
-0.28742599 -0.027449001 -0.408207
-0.29775399 -0.028434999 -0.40066701
-0.307886 -0.029402999 -0.39286301
-0.31781501 -0.030351 -0.38480201
-0.32753599 -0.031279001 -0.37648699
-0.33704001 -0.032187 -0.367924
-0.34632301 -0.033073001 -0.359119
-0.355378 -0.033938002 -0.35007799
-0.3642 -0.034779999 -0.34080601
-0.37278101 -0.035599999 -0.33131099
-0.381118 -0.036396001 -0.32159701
-0.38920301 -0.037168 -0.311672
-0.39703301 -0.037916001 -0.30154201
-0.40460101 -0.038639002 -0.29121301
-0.41190299 -0.039336 -0.28069201
-0.418935 -0.040008001 -0.269988
-0.42569 -0.040653002 -0.259105
-0.432165 -0.041271001 -0.248052
-0.438357 -0.041862 -0.236836
-0.44425899 -0.042426001 -0.225463
-0.44986999 -0.042962 -0.213943
-0.45518401 -0.043469001 -0.202282
-0.460199 -0.043947998 -0.190487
-0.46491101 -0.044397999 -0.17856801
-0.46931699 -0.044819001 -0.166531
-0.47341499 -0.04521 -0.154384
-0.47720101 -0.045572001 -0.14213599
-0.48067299 -0.045903001 -0.129794
-0.48382899 -0.046204999 -0.117367
-0.48666599 -0.046475999 -0.104862
-0.48918301 -0.046716001 -0.092289001
-0.49137899 -0.046925999 -0.079654999
-0.493251 -0.047104999 -0.066968001
-0.494798 -0.047251999 -0.054237999
-0.49601999 -0.047369 -0.041471999
-0.496916 -0.047455002 -0.028678
-0.49748501 -0.047509 -0.015866
-0.49772599 -0.047532 -0.0030429999
-0.49764001 -0.047524001 0.0097820004
-0.49722701 -0.047483999 0.022600999
-0.49648601 -0.047414001 0.035404
-0.495419 -0.047311999 0.048184
-0.49402601 -0.047178999 0.060933001
-0.49230701 -0.047015 0.073641002
-0.49026501 -0.04682 0.086300999
-0.487901 -0.046594001 0.098904997
-0.48521501 -0.046337001 0.111443
-0.48221001 -0.046050001 0.123908
-0.47888801 -0.045733001 0.136291
-0.47525001 -0.045386001 0.14858501
-0.47130001 -0.045008 0.16078
-0.46704 -0.044601999 0.17287099
-0.46247301 -0.044165 0.184847
-0.45760101 -0.043699998 0.196702
-0.45242801 -0.043205999 0.208427
-0.44695801 -0.042684 0.220015
-0.441194 -0.042133 0.23145901
-0.435139 -0.041554999 0.24275
-0.42879799 -0.040948998 0.25388101
-0.42217499 -0.040316999 0.264846
-0.41527399 -0.039657999 0.27563599
-0.40810001 -0.038973 0.28624499
-0.400657 -0.038261998 0.29666501
-0.39295101 -0.037526 0.30689001
-0.38498601 -0.036765002 0.31691399
-0.37676799 -0.035980999 0.32672799
-0.36830199 -0.035172001 0.336328
-0.359593 -0.034341 0.345707
-0.35064799 -0.033486001 0.35485801
-0.34147301 -0.032609999 0.363776
-0.332073 -0.031711999 0.37245399
-0.32245401 -0.030794 0.380887
-0.31262299 -0.029855 0.38907
-0.30258599 -0.028896 0.396997
-0.29235101 -0.027919 0.40466201
-0.281923 -0.026923001 0.41206199
-0.27130899 -0.025909999 0.41918999
-0.260517 -0.024878999 0.42604199
-0.24955399 -0.023832001 0.432614
-0.238426 -0.022769 0.43890199
-0.22714201 -0.021692 0.44490001
-0.215708 -0.0206 0.45060599
-0.20413201 -0.019494001 0.45601499
-0.192422 -0.018376 0.46112499
-0.180585 -0.017246 0.465931
-0.16862901 -0.016104 0.47042999
-0.156563 -0.014951 0.47462001
-0.144393 -0.013789 0.47849801
-0.132129 -0.012618 0.482061
-0.119777 -0.011439 0.48530701
-0.107347 -0.010251 0.488233
-0.094846003 -0.0090579996 0.49083799
-0.082282998 -0.0078579998 0.49312001
-0.069665998 -0.0066530001 0.495078
-0.057002001 -0.005444 0.49671
-0.044302002 -0.0042309999 0.498016
-0.031571999 -0.0030149999 0.49899301
-0.018820999 -0.0017969999 0.49964201
-0.006058 -0.00057899999 0.49996299
-0 -0 -0.5
-0.012793 -0.00089099997 -0.499836
-0.025578 -0.0017819999 -0.49934199
-0.038346 -0.0026720001 -0.49851999
-0.051088002 -0.0035590001 -0.49737
-0.063796997 -0.0044450001 -0.495893
-0.076463997 -0.0053269998 -0.49408999
-0.089080997 -0.0062060002 -0.491961
-0.101639 -0.0070810001 -0.48950899
-0.11413 -0.007952 -0.48673499
-0.126546 -0.0088170003 -0.483641
-0.138879 -0.0096760001 -0.48022801
-0.15112101 -0.010529 -0.47649899
-0.16326299 -0.011375 -0.47245699
-0.17529701 -0.012213 -0.468104
-0.187217 -0.013044 -0.46344301
-0.19901299 -0.013865 -0.45847699
-0.210678 -0.014678 -0.45321
-0.222205 -0.015481 -0.447644
-0.233585 -0.016274 -0.44178399
-0.244812 -0.017055999 -0.435633
-0.255878 -0.017827 -0.429196
-0.26677501 -0.018586 -0.42247599
-0.27749699 -0.019332999 -0.41547799
-0.28803599 -0.020067999 -0.408207
-0.29838499 -0.020788999 -0.40066701
-0.308539 -0.021496 -0.39286301
-0.31848899 -0.022189001 -0.38480201
-0.32822999 -0.022868 -0.37648699
-0.33775499 -0.023531999 -0.367924
-0.347058 -0.024180001 -0.359119
-0.356132 -0.024812 -0.35007799
-0.364972 -0.025428001 -0.34080601
-0.37357199 -0.026027 -0.33131099
-0.381926 -0.026609 -0.32159701
-0.39002901 -0.027174 -0.311672
-0.39787501 -0.027720001 -0.30154201
-0.40545899 -0.028248999 -0.29121301
-0.41277701 -0.028759001 -0.28069201
-0.41982299 -0.029248999 -0.269988
-0.42659301 -0.029720999 -0.259105
-0.43308201 -0.030173 -0.248052
-0.43928599 -0.030605 -0.236836
-0.44520101 -0.031018 -0.225463
-0.45082399 -0.031408999 -0.213943
-0.45614901 -0.031780001 -0.202282
-0.46117499 -0.032131001 -0.190487
-0.46589699 -0.03246 -0.17856801
-0.47031301 -0.032767002 -0.166531
-0.474419 -0.033053 -0.154384
-0.47821301 -0.033318002 -0.14213599
-0.48169199 -0.03356 -0.129794
-0.484855 -0.033780001 -0.117367
-0.48769799 -0.033978 -0.104862
-0.49022099 -0.034154002 -0.092289001
-0.492421 -0.034306999 -0.079654999
-0.494297 -0.034437999 -0.066968001
-0.495848 -0.034545999 -0.054237999
-0.49707201 -0.034632001 -0.041471999
-0.49797001 -0.034694001 -0.028678
-0.49854001 -0.034734 -0.015866
-0.49878201 -0.034751002 -0.0030429999
-0.49869499 -0.034745 0.0097820004
-0.498281 -0.034715999 0.022600999
-0.49753901 -0.034664001 0.035404
-0.49646899 -0.034589998 0.048184
-0.49507299 -0.034492001 0.060933001
-0.49335101 -0.034371998 0.073641002
-0.49130499 -0.034230001 0.086300999
-0.48893499 -0.034065001 0.098904997
-0.48624399 -0.033877 0.111443
-0.48323199 -0.033666998 0.123908
-0.47990301 -0.033434998 0.136291
-0.47625801 -0.033181001 0.14858501
-0.47229999 -0.032906 0.16078
-0.46803001 -0.032607999 0.17287099
-0.46345299 -0.032288998 0.184847
-0.45857099 -0.031948999 0.196702
-0.45338801 -0.031587999 0.208427
-0.44790599 -0.031206001 0.220015
-0.44212899 -0.030804001 0.23145901
-0.43606099 -0.030381 0.24275
-0.42970699 -0.029937999 0.25388101
-0.42307001 -0.029476 0.264846
-0.416154 -0.028994 0.27563599
-0.40896499 -0.028493 0.28624499
-0.40150601 -0.027973 0.29666501
-0.39378399 -0.027434999 0.30689001
-0.385802 -0.026879 0.31691399
-0.37756699 -0.026304999 0.32672799
-0.36908299 -0.025714001 0.336328
-0.360356 -0.025106 0.345707
-0.351392 -0.024482001 0.35485801
-0.342197 -0.023840999 0.363776
-0.33277699 -0.023185 0.37245399
-0.323138 -0.022513 0.380887
-0.31328601 -0.021826999 0.38907
-0.30322799 -0.021126 0.396997
-0.29297099 -0.020412 0.40466201
-0.28252101 -0.019683 0.41206199
-0.27188399 -0.018942 0.41918999
-0.26107001 -0.018189 0.42604199
-0.250083 -0.017424 0.432614
-0.238932 -0.016647 0.43890199
-0.227623 -0.015859 0.44490001
-0.21616501 -0.01506 0.45060599
-0.204565 -0.014252 0.45601499
-0.19283 -0.013435 0.46112499
-0.180968 -0.012608 0.465931
-0.16898701 -0.011773 0.47042999
-0.156895 -0.010931 0.47462001
-0.14470001 -0.010081 0.47849801
-0.13240901 -0.0092249997 0.482061
-0.120031 -0.0083630001 0.48530701
-0.107575 -0.007495 0.488233
-0.095046997 -0.0066220001 0.49083799
-0.082456999 -0.0057450002 0.49312001
-0.069812998 -0.0048639998 0.495078
-0.057123002 -0.00398 0.49671
-0.044395 -0.003093 0.498016
-0.031638999 -0.002204 0.49899301
-0.018860999 -0.001314 0.49964201
-0.0060709999 -0.00042299999 0.49996299
-0 -0 -0.5
-0.012812 -0.00056299998 -0.499836
-0.025614999 -0.001125 -0.49934199
-0.038401 -0.001687 -0.49851999
-0.051162999 -0.0022479999 -0.49737
-0.063890003 -0.002807 -0.495893
-0.076576002 -0.003364 -0.49408999
-0.089211002 -0.00392 -0.491961
-0.101787 -0.0044720001 -0.48950899
-0.114297 -0.0050220001 -0.48673499
-0.12673099 -0.005568 -0.483641
-0.139082 -0.0061110002 -0.48022801
-0.15134101 -0.0066490001 -0.47649899
-0.16350099 -0.0071840002 -0.47245699
-0.17555299 -0.0077129998 -0.468104
-0.18749 -0.0082379999 -0.46344301
-0.199303 -0.0087569999 -0.45847699
-0.210985 -0.0092700003 -0.45321
-0.22252899 -0.0097770002 -0.447644
-0.233926 -0.010278 -0.44178399
-0.245169 -0.010772 -0.435633
-0.25625101 -0.011259 -0.429196
-0.26716399 -0.011738 -0.42247599
-0.27790099 -0.01221 -0.41547799
-0.28845599 -0.012674 -0.408207
-0.29881999 -0.013129 -0.40066701
-0.30898899 -0.013576 -0.39286301
-0.31895399 -0.014013 -0.38480201
-0.32870901 -0.014442 -0.37648699
-0.338247 -0.014861 -0.367924
-0.34756401 -0.01527 -0.359119
-0.35665101 -0.01567 -0.35007799
-0.365504 -0.016059 -0.34080601
-0.374116 -0.016437 -0.33131099
-0.38248301 -0.016805001 -0.32159701
-0.39059699 -0.017161001 -0.311672
-0.39845499 -0.017506 -0.30154201
-0.40605 -0.01784 -0.29121301
-0.41337901 -0.018162001 -0.28069201
-0.42043501 -0.018471999 -0.269988
-0.42721501 -0.01877 -0.259105
-0.43371299 -0.019056 -0.248052
-0.43992701 -0.019329 -0.236836
-0.44585001 -0.019588999 -0.225463
-0.45148101 -0.019835999 -0.213943
-0.45681399 -0.020071 -0.202282
-0.46184701 -0.020292001 -0.190487
-0.46657601 -0.020499 -0.17856801
-0.47099799 -0.020694001 -0.166531
-0.47510999 -0.020873999 -0.154384
-0.47891 -0.021041 -0.14213599
-0.48239401 -0.021194 -0.129794
-0.48556101 -0.021334 -0.117367
-0.48840901 -0.021459 -0.104862
-0.490935 -0.021570001 -0.092289001
-0.493139 -0.021666 -0.079654999
-0.49501699 -0.021748999 -0.066968001
-0.49656999 -0.021817001 -0.054237999
-0.49779701 -0.021871001 -0.041471999
-0.498696 -0.021911001 -0.028678
-0.49926701 -0.021935999 -0.015866
-0.49950901 -0.021946 -0.0030429999
-0.49942201 -0.021942999 0.0097820004
-0.499008 -0.021924 0.022600999
-0.49826401 -0.021892 0.035404
-0.49719301 -0.021845 0.048184
-0.49579501 -0.021783 0.060933001
-0.49407101 -0.021707 0.073641002
-0.49202099 -0.021617001 0.086300999
-0.48964801 -0.021513 0.098904997
-0.48695299 -0.021395 0.111443
-0.483937 -0.021261999 0.123908
-0.48060301 -0.021116 0.136291
-0.47695199 -0.020955 0.14858501
-0.47298801 -0.020780999 0.16078
-0.46871299 -0.020593001 0.17287099
-0.464129 -0.020392001 0.184847
-0.45923999 -0.020176999 0.196702
-0.45404899 -0.019949 0.208427
-0.44855899 -0.019708 0.220015
-0.442774 -0.019454001 0.23145901
-0.43669701 -0.019187 0.24275
-0.43033299 -0.018906999 0.25388101
-0.42368701 -0.018615 0.264846
-0.41676101 -0.018310999 0.27563599
-0.40956101 -0.017994 0.28624499
-0.40209201 -0.017666001 0.29666501
-0.39435801 -0.017325999 0.30689001
-0.386365 -0.016975001 0.31691399
-0.378117 -0.016612999 0.32672799
-0.36962101 -0.016240001 0.336328
-0.360881 -0.015856 0.345707
-0.351904 -0.015461 0.35485801
-0.34269601 -0.015057 0.363776
-0.333262 -0.014642 0.37245399
-0.32360899 -0.014218 0.380887
-0.313743 -0.013785 0.38907
-0.30366999 -0.013342 0.396997
-0.29339799 -0.012891 0.40466201
-0.28293201 -0.012431 0.41206199
-0.27228099 -0.011963 0.41918999
-0.26144999 -0.011487 0.42604199
-0.25044799 -0.011004 0.432614
-0.23928 -0.010513 0.43890199
-0.227955 -0.010015 0.44490001
-0.21648 -0.0095109995 0.45060599
-0.204863 -0.0090009999 0.45601499
-0.193111 -0.0084840003 0.46112499
-0.18123201 -0.0079629999 0.465931
-0.16923299 -0.007435 0.47042999
-0.157124 -0.0069030002 0.47462001
-0.14491101 -0.0063669998 0.47849801
-0.13260201 -0.0058260001 0.482061
-0.120206 -0.0052809999 0.48530701
-0.107732 -0.004733 0.488233
-0.095186003 -0.0041820002 0.49083799
-0.082578003 -0.0036279999 0.49312001
-0.069914997 -0.0030720001 0.495078
-0.057206001 -0.002513 0.49671
-0.044459999 -0.001953 0.498016
-0.031684998 -0.001392 0.49899301
-0.018888 -0.00082999998 0.49964201
-0.0060800002 -0.000267 0.49996299
-0 -0 -0.5
-0.012822 -0.00023400001 -0.499836
-0.025635 -0.00046800001 -0.49934199
-0.038431998 -0.00070199999 -0.49851999
-0.051203001 -0.00093500002 -0.49737
-0.063941002 -0.001167 -0.495893
-0.076637 -0.0013989999 -0.49408999
-0.089281999 -0.00163 -0.491961
-0.101868 -0.00186 -0.48950899
-0.114388 -0.0020890001 -0.48673499
-0.12683199 -0.0023159999 -0.483641
-0.139193 -0.002541 -0.48022801
-0.151462 -0.0027650001 -0.47649899
-0.16363101 -0.0029879999 -0.47245699
-0.17569301 -0.003208 -0.468104
-0.187639 -0.003426 -0.46344301
-0.199462 -0.003642 -0.45847699
-0.211154 -0.003855 -0.45321
-0.222706 -0.0040660002 -0.447644
-0.23411199 -0.0042750002 -0.44178399
-0.245364 -0.0044800001 -0.435633
-0.256455 -0.004683 -0.429196
-0.26737699 -0.0048819999 -0.42247599
-0.27812299 -0.005078 -0.41547799
-0.28868601 -0.0052709999 -0.408207
-0.299059 -0.0054600001 -0.40066701
-0.30923501 -0.0056460002 -0.39286301
-0.319208 -0.0058280001 -0.38480201
-0.328971 -0.0060069999 -0.37648699
-0.33851701 -0.0061809998 -0.367924
-0.34784099 -0.0063510002 -0.359119
-0.35693601 -0.006517 -0.35007799
-0.365796 -0.0066789999 -0.34080601
-0.37441501 -0.0068359999 -0.33131099
-0.382788 -0.0069889999 -0.32159701
-0.39090899 -0.0071370001 -0.311672
-0.39877301 -0.0072809998 -0.30154201
-0.40637401 -0.0074200002 -0.29121301
-0.413708 -0.0075539998 -0.28069201
-0.42076999 -0.0076830001 -0.269988
-0.42755601 -0.0078070001 -0.259105
-0.43405899 -0.007925 -0.248052
-0.44027799 -0.0080390004 -0.236836
-0.446206 -0.0081470003 -0.225463
-0.451841 -0.00825 -0.213943
-0.45717901 -0.008347 -0.202282
-0.46221599 -0.0084389998 -0.190487
-0.466948 -0.0085260002 -0.17856801
-0.47137401 -0.0086070001 -0.166531
-0.47548899 -0.0086820005 -0.154384
-0.47929201 -0.0087510003 -0.14213599
-0.482779 -0.0088149998 -0.129794
-0.48594901 -0.0088729998 -0.117367
-0.48879901 -0.0089250002 -0.104862
-0.49132699 -0.0089710001 -0.092289001
-0.493532 -0.0090110004 -0.079654999
-0.49541199 -0.0090460004 -0.066968001
-0.49696699 -0.0090739997 -0.054237999
-0.49819401 -0.0090960003 -0.041471999
-0.49909401 -0.0091129998 -0.028678
-0.49966499 -0.0091230003 -0.015866
-0.49990699 -0.0091279997 -0.0030429999
-0.49982101 -0.0091260001 0.0097820004
-0.49940601 -0.009118 0.022600999
-0.49866199 -0.0091049997 0.035404
-0.49759001 -0.0090849996 0.048184
-0.49619099 -0.0090600001 0.060933001
-0.49446499 -0.0090279998 0.073641002
-0.492414 -0.0089910002 0.086300999
-0.49003899 -0.0089469999 0.098904997
-0.48734099 -0.0088980002 0.111443
-0.48432299 -0.008843 0.123908
-0.480986 -0.0087820003 0.136291
-0.47733301 -0.008715 0.14858501
-0.47336599 -0.0086430004 0.16078
-0.469087 -0.0085650003 0.17287099
-0.464499 -0.0084809996 0.184847
-0.45960599 -0.0083919996 0.196702
-0.454411 -0.0082970001 0.208427
-0.448917 -0.0081970003 0.220015
-0.44312701 -0.0080909999 0.23145901
-0.43704599 -0.0079800002 0.24275
-0.430677 -0.0078640003 0.25388101
-0.424025 -0.0077419998 0.264846
-0.41709301 -0.0076159998 0.27563599
-0.409888 -0.0074840002 0.28624499
-0.40241301 -0.0073480001 0.29666501
-0.39467299 -0.0072059999 0.30689001
-0.386673 -0.0070600002 0.31691399
-0.37841901 -0.0069090002 0.32672799
-0.36991599 -0.0067540002 0.336328
-0.36116901 -0.0065939999 0.345707
-0.35218501 -0.0064300001 0.35485801
-0.342969 -0.0062620002 0.363776
-0.33352801 -0.0060899998 0.37245399
-0.32386699 -0.0059130001 0.380887
-0.31399301 -0.0057330001 0.38907
-0.30391201 -0.0055490001 0.396997
-0.293632 -0.0053610001 0.40466201
-0.283158 -0.0051699998 0.41206199
-0.27249801 -0.0049749999 0.41918999
-0.261659 -0.0047780001 0.42604199
-0.25064701 -0.0045759999 0.432614
-0.239471 -0.0043720002 0.43890199
-0.228137 -0.0041649998 0.44490001
-0.216653 -0.0039559999 0.45060599
-0.205026 -0.0037440001 0.45601499
-0.19326501 -0.0035290001 0.46112499
-0.181376 -0.0033120001 0.465931
-0.169368 -0.003092 0.47042999
-0.157249 -0.002871 0.47462001
-0.145026 -0.0026479999 0.47849801
-0.132708 -0.0024230001 0.482061
-0.120302 -0.002197 0.48530701
-0.107818 -0.0019690001 0.488233
-0.095261998 -0.001739 0.49083799
-0.082644001 -0.001509 0.49312001
-0.069971003 -0.001278 0.495078
-0.057252001 -0.001045 0.49671
-0.044496 -0.00081200001 0.498016
-0.031709999 -0.00057899999 0.49899301
-0.018903 -0.00034500001 0.49964201
-0.0060840002 -0.000111 0.49996299
-0 0 -0.5
-0.012824 9.5000003e-05 -0.499836
-0.025638999 0.00019000001 -0.49934199
-0.038437001 0.00028400001 -0.49851999
-0.051210999 0.000379 -0.49737
-0.063950002 0.00047299999 -0.495893
-0.076646999 0.00056700001 -0.49408999
-0.089294001 0.00066000002 -0.491961
-0.101883 0.00075299997 -0.48950899
-0.114404 0.00084599998 -0.48673499
-0.12684999 0.00093799998 -0.483641
-0.139212 0.001029 -0.48022801
-0.151483 0.00112 -0.47649899
-0.163654 0.00121 -0.47245699
-0.17571799 0.001299 -0.468104
-0.187666 0.001388 -0.46344301
-0.19949 0.0014750001 -0.45847699
-0.211183 0.001562 -0.45321
-0.222737 0.001647 -0.447644
-0.234145 0.001731 -0.44178399
-0.245399 0.001815 -0.435633
-0.25649101 0.001897 -0.429196
-0.267414 0.0019769999 -0.42247599
-0.278162 0.0020570001 -0.41547799
-0.288726 0.002135 -0.408207
-0.299101 0.0022120001 -0.40066701
-0.30927801 0.002287 -0.39286301
-0.319253 0.002361 -0.38480201
-0.32901701 0.0024329999 -0.37648699
-0.33856401 0.002504 -0.367924
-0.34788901 0.002572 -0.359119
-0.356985 0.0026400001 -0.35007799
-0.36584699 0.0027050001 -0.34080601
-0.37446699 0.0027689999 -0.33131099
-0.38284099 0.0028309999 -0.32159701
-0.39096299 0.0028909999 -0.311672
-0.398828 0.0029490001 -0.30154201
-0.40643099 0.0030050001 -0.29121301
-0.413766 0.00306 -0.28069201
-0.420829 0.0031119999 -0.269988
-0.42761499 0.0031620001 -0.259105
-0.43412 0.00321 -0.248052
-0.440339 0.0032560001 -0.236836
-0.44626799 0.0033 -0.225463
-0.451904 0.0033420001 -0.213943
-0.45724201 0.0033809999 -0.202282
-0.46228001 0.0034179999 -0.190487
-0.46701401 0.003453 -0.17856801
-0.47143999 0.003486 -0.166531
-0.47555599 0.003517 -0.154384
-0.479359 0.003545 -0.14213599
-0.48284701 0.0035699999 -0.129794
-0.48601699 0.0035939999 -0.117367
-0.48886701 0.0036150001 -0.104862
-0.49139601 0.003634 -0.092289001
-0.49360099 0.0036500001 -0.079654999
-0.49548101 0.003664 -0.066968001
-0.49703601 0.003675 -0.054237999
-0.49826401 0.0036840001 -0.041471999
-0.499163 0.0036909999 -0.028678
-0.499735 0.003695 -0.015866
-0.49997699 0.003697 -0.0030429999
-0.49989101 0.003696 0.0097820004
-0.499475 0.0036929999 0.022600999
-0.49873099 0.0036879999 0.035404
-0.497659 0.0036800001 0.048184
-0.49625999 0.00367 0.060933001
-0.49453399 0.0036569999 0.073641002
-0.49248201 0.003642 0.086300999
-0.490107 0.0036239999 0.098904997
-0.487409 0.003604 0.111443
-0.48438999 0.003582 0.123908
-0.48105299 0.0035570001 0.136291
-0.47739899 0.0035300001 0.14858501
-0.473432 0.0035010001 0.16078
-0.469152 0.0034690001 0.17287099
-0.464564 0.0034350001 0.184847
-0.45967001 0.003399 0.196702
-0.454474 0.003361 0.208427
-0.44897899 0.0033199999 0.220015
-0.443189 0.003277 0.23145901
-0.437107 0.0032319999 0.24275
-0.43073699 0.003185 0.25388101
-0.42408401 0.0031359999 0.264846
-0.41715199 0.003085 0.27563599
-0.40994501 0.003031 0.28624499
-0.40246901 0.0029760001 0.29666501
-0.394728 0.0029190001 0.30689001
-0.38672701 0.0028599999 0.31691399
-0.37847099 0.0027989999 0.32672799
-0.36996701 0.0027360001 0.336328
-0.36122 0.0026710001 0.345707
-0.35223401 0.002605 0.35485801
-0.34301701 0.002536 0.363776
-0.333574 0.0024669999 0.37245399
-0.32391199 0.0023950001 0.380887
-0.314037 0.002322 0.38907
-0.30395499 0.0022479999 0.396997
-0.29367301 0.002172 0.40466201
-0.283198 0.0020940001 0.41206199
-0.27253601 0.002015 0.41918999
-0.261695 0.0019349999 0.42604199
-0.250682 0.001854 0.432614
-0.23950399 0.001771 0.43890199
-0.22816899 0.001687 0.44490001
-0.216683 0.001602 0.45060599
-0.205055 0.001516 0.45601499
-0.19329201 0.0014290001 0.46112499
-0.181402 0.001341 0.465931
-0.169392 0.001253 0.47042999
-0.157271 0.001163 0.47462001
-0.145046 0.001073 0.47849801
-0.132726 0.00098100002 0.482061
-0.120319 0.00089000002 0.48530701
-0.107833 0.00079700002 0.488233
-0.095275 0.00070500001 0.49083799
-0.082654998 0.000611 0.49312001
-0.069981001 0.00051699998 0.495078
-0.057259999 0.00042299999 0.49671
-0.044502001 0.000329 0.498016
-0.031714 0.000235 0.49899301
-0.018905999 0.00014 0.49964201
-0.006085 4.5000001e-05 0.49996299
-0 0 -0.5
-0.012817 0.000424 -0.499836
-0.025626 0.00084699999 -0.49934199
-0.038417999 0.00127 -0.49851999
-0.051183999 0.001692 -0.49737
-0.063917004 0.002113 -0.495893
-0.076608002 0.002532 -0.49408999
-0.089248002 0.0029500001 -0.491961
-0.10183 0.003366 -0.48950899
-0.114344 0.0037799999 -0.48673499
-0.126784 0.004191 -0.483641
-0.13913999 0.0046000001 -0.48022801
-0.15140399 0.0050050002 -0.47649899
-0.163569 0.005407 -0.47245699
-0.17562599 0.005806 -0.468104
-0.18756799 0.006201 -0.46344301
-0.199386 0.0065910001 -0.45847699
-0.21107399 0.006978 -0.45321
-0.22262201 0.0073589999 -0.447644
-0.234024 0.0077360002 -0.44178399
-0.245271 0.0081080003 -0.435633
-0.256358 0.008475 -0.429196
-0.26727599 0.008835 -0.42247599
-0.27801701 0.0091909999 -0.41547799
-0.28857601 0.00954 -0.408207
-0.29894501 0.0098820003 -0.40066701
-0.309118 0.010219 -0.39286301
-0.319087 0.010548 -0.38480201
-0.32884601 0.010871 -0.37648699
-0.33838901 0.011186 -0.367924
-0.347709 0.011494 -0.359119
-0.35679999 0.011795 -0.35007799
-0.365657 0.012088 -0.34080601
-0.374273 0.012372 -0.33131099
-0.38264301 0.012649 -0.32159701
-0.39076099 0.012918 -0.311672
-0.39862099 0.013177 -0.30154201
-0.40621999 0.013429 -0.29121301
-0.413551 0.013671 -0.28069201
-0.42061099 0.013904 -0.269988
-0.42739299 0.014129 -0.259105
-0.43389499 0.014343 -0.248052
-0.44011101 0.014549 -0.236836
-0.44603699 0.014745 -0.225463
-0.45166999 0.014931 -0.213943
-0.45700499 0.015107 -0.202282
-0.46204001 0.015274 -0.190487
-0.46677101 0.01543 -0.17856801
-0.47119501 0.015576 -0.166531
-0.47530901 0.015712 -0.154384
-0.47911 0.015838001 -0.14213599
-0.48259601 0.015953001 -0.129794
-0.48576501 0.016058 -0.117367
-0.48861301 0.016152 -0.104862
-0.49114099 0.016236 -0.092289001
-0.49334499 0.016309001 -0.079654999
-0.495224 0.016371001 -0.066968001
-0.49677801 0.016422 -0.054237999
-0.498005 0.016463 -0.041471999
-0.49890399 0.016492 -0.028678
-0.499475 0.016511001 -0.015866
-0.49971801 0.016519001 -0.0030429999
-0.49963099 0.016517 0.0097820004
-0.49921599 0.016503001 0.022600999
-0.49847299 0.016478 0.035404
-0.497401 0.016442999 0.048184
-0.49600199 0.016396999 0.060933001
-0.494277 0.016340001 0.073641002
-0.49222699 0.016271999 0.086300999
-0.48985299 0.016193001 0.098904997
-0.487156 0.016104 0.111443
-0.484139 0.016004 0.123908
-0.480804 0.015893999 0.136291
-0.47715199 0.015773 0.14858501
-0.47318599 0.015642 0.16078
-0.468909 0.015501 0.17287099
-0.46432301 0.015349 0.184847
-0.45943201 0.015188 0.196702
-0.45423901 0.015016 0.208427
-0.448746 0.014834 0.220015
-0.44295901 0.014643 0.23145901
-0.43687999 0.014442 0.24275
-0.43051299 0.014232 0.25388101
-0.42386401 0.014012 0.264846
-0.416935 0.013783 0.27563599
-0.40973201 0.013545 0.28624499
-0.40226001 0.013298 0.29666501
-0.39452299 0.013042 0.30689001
-0.38652599 0.012778 0.31691399
-0.37827501 0.012505 0.32672799
-0.369775 0.012224 0.336328
-0.36103201 0.011935 0.345707
-0.352052 0.011638 0.35485801
-0.342839 0.011333 0.363776
-0.33340099 0.011021 0.37245399
-0.323744 0.010702 0.380887
-0.31387401 0.010376 0.38907
-0.30379701 0.010043 0.396997
-0.29352 0.0097030001 0.40466201
-0.28305101 0.0093569998 0.41206199
-0.27239501 0.0090049999 0.41918999
-0.26155999 0.0086460002 0.42604199
-0.250552 0.0082830004 0.432614
-0.23938 0.007913 0.43890199
-0.22805101 0.0075389999 0.44490001
-0.216571 0.0071589998 0.45060599
-0.20494901 0.0067750001 0.45601499
-0.19319201 0.0063860002 0.46112499
-0.181308 0.005994 0.465931
-0.169304 0.005597 0.47042999
-0.157189 0.005196 0.47462001
-0.144971 0.0047920002 0.47849801
-0.132658 0.0043850001 0.482061
-0.120257 0.0039750002 0.48530701
-0.107777 0.0035629999 0.488233
-0.095225997 0.003148 0.49083799
-0.082612 0.0027310001 0.49312001
-0.069944002 0.0023119999 0.495078
-0.057229999 0.001892 0.49671
-0.044479001 0.00147 0.498016
-0.031698 0.0010479999 0.49899301
-0.018896 0.00062499999 0.49964201
-0.0060820002 0.000201 0.49996299
-0 0 -0.5
-0.012802 0.00075200002 -0.499836
-0.025596 0.001504 -0.49934199
-0.038371999 0.0022549999 -0.49851999
-0.051123999 0.0030040001 -0.49737
-0.063841999 0.0037519999 -0.495893
-0.076517999 0.0044959998 -0.49408999
-0.089143001 0.0052379998 -0.491961
-0.10171 0.0059770001 -0.48950899
-0.11421 0.0067110001 -0.48673499
-0.126635 0.0074419999 -0.483641
-0.13897599 0.0081669996 -0.48022801
-0.151226 0.0088870004 -0.47649899
-0.163377 0.0096009998 -0.47245699
-0.17542 0.010308 -0.468104
-0.18734699 0.011009 -0.46344301
-0.19915199 0.011703 -0.45847699
-0.210825 0.012389 -0.45321
-0.22236 0.013067 -0.447644
-0.233748 0.013736 -0.44178399
-0.244983 0.014396 -0.435633
-0.25605601 0.015047 -0.429196
-0.26696101 0.015688 -0.42247599
-0.27768999 0.016318001 -0.41547799
-0.28823701 0.016938001 -0.408207
-0.298594 0.017547 -0.40066701
-0.308754 0.018144 -0.39286301
-0.31871101 0.018728999 -0.38480201
-0.32845899 0.019301999 -0.37648699
-0.337991 0.019862 -0.367924
-0.34729999 0.020408999 -0.359119
-0.35637999 0.020942001 -0.35007799
-0.36522701 0.021462001 -0.34080601
-0.37383199 0.021968 -0.33131099
-0.38219199 0.022459 -0.32159701
-0.39030099 0.022936 -0.311672
-0.39815199 0.023397001 -0.30154201
-0.40574199 0.023843 -0.29121301
-0.41306499 0.024273001 -0.28069201
-0.42011601 0.024688 -0.269988
-0.42688999 0.025086001 -0.259105
-0.433384 0.025467001 -0.248052
-0.43959299 0.025831999 -0.236836
-0.445512 0.026179999 -0.225463
-0.45113799 0.026511 -0.213943
-0.45646799 0.026823999 -0.202282
-0.46149701 0.027119 -0.190487
-0.46622199 0.027396999 -0.17856801
-0.47064099 0.027657 -0.166531
-0.47475001 0.027898001 -0.154384
-0.47854599 0.028121 -0.14213599
-0.48202801 0.028325999 -0.129794
-0.48519301 0.028511999 -0.117367
-0.488038 0.028679 -0.104862
-0.49056301 0.028827 -0.092289001
-0.492764 0.028957 -0.079654999
-0.49464199 0.029067 -0.066968001
-0.49619401 0.029158 -0.054237999
-0.497419 0.02923 -0.041471999
-0.498317 0.029283 -0.028678
-0.49888799 0.029317001 -0.015866
-0.49913001 0.029331001 -0.0030429999
-0.49904299 0.029325999 0.0097820004
-0.498629 0.029301001 0.022600999
-0.497886 0.029258 0.035404
-0.49681601 0.029194999 0.048184
-0.495419 0.029113 0.060933001
-0.493696 0.029011 0.073641002
-0.49164799 0.028891001 0.086300999
-0.48927599 0.028751999 0.098904997
-0.48658299 0.028594 0.111443
-0.483569 0.028416 0.123908
-0.48023799 0.028221 0.136291
-0.47659001 0.028006 0.14858501
-0.47262901 0.027774001 0.16078
-0.468357 0.027522 0.17287099
-0.46377701 0.027253 0.184847
-0.458891 0.026966 0.196702
-0.453704 0.026660999 0.208427
-0.44821799 0.026339 0.220015
-0.44243801 0.025999 0.23145901
-0.43636599 0.025643 0.24275
-0.43000701 0.025269 0.25388101
-0.423365 0.024878999 0.264846
-0.41644499 0.024472 0.27563599
-0.40924999 0.024049001 0.28624499
-0.40178701 0.023611 0.29666501
-0.394059 0.023156 0.30689001
-0.386071 0.022686999 0.31691399
-0.37783 0.022203 0.32672799
-0.36934 0.021703999 0.336328
-0.360607 0.021190999 0.345707
-0.35163701 0.020664001 0.35485801
-0.34243599 0.020122999 0.363776
-0.333009 0.019569 0.37245399
-0.32336301 0.019002 0.380887
-0.31350401 0.018423 0.38907
-0.30344 0.017831 0.396997
-0.29317501 0.017228 0.40466201
-0.282718 0.016613999 0.41206199
-0.27207401 0.015988 0.41918999
-0.26125199 0.015352 0.42604199
-0.25025699 0.014706 0.432614
-0.239098 0.01405 0.43890199
-0.227782 0.013385 0.44490001
-0.216316 0.012712 0.45060599
-0.204707 0.012029 0.45601499
-0.192964 0.011339 0.46112499
-0.18109401 0.010642 0.465931
-0.16910499 0.0099370005 0.47042999
-0.157004 0.0092259999 0.47462001
-0.14480101 0.0085089998 0.47849801
-0.13250101 0.0077860001 0.482061
-0.120115 0.0070580002 0.48530701
-0.10765 0.0063260002 0.488233
-0.095114 0.0055889999 0.49083799
-0.082515001 0.0048489999 0.49312001
-0.069862001 0.0041049998 0.495078
-0.057163 0.003359 0.49671
-0.044426002 0.0026110001 0.498016
-0.031661 0.001861 0.49899301
-0.018874001 0.0011089999 0.49964201
-0.0060749999 0.00035700001 0.49996299
-0 0 -0.5
-0.012779 0.00108 -0.499836
-0.025549 0.0021599999 -0.49934199
-0.038302001 0.003238 -0.49851999
-0.051029999 0.0043139998 -0.49737
-0.063723996 0.005388 -0.495893
-0.076376997 0.0064579998 -0.49408999
-0.088978998 0.0075229998 -0.491961
-0.101523 0.0085840002 -0.48950899
-0.114 0.0096380003 -0.48673499
-0.12640201 0.010687 -0.483641
-0.138721 0.011729 -0.48022801
-0.150949 0.012762 -0.47649899
-0.163077 0.013788 -0.47245699
-0.175098 0.014804 -0.468104
-0.187003 0.015811 -0.46344301
-0.19878601 0.016806999 -0.45847699
-0.210438 0.017792 -0.45321
-0.22195201 0.018766001 -0.447644
-0.233319 0.019726999 -0.44178399
-0.244533 0.020675 -0.435633
-0.255586 0.021609001 -0.429196
-0.266471 0.022530001 -0.42247599
-0.27717999 0.023435 -0.41547799
-0.28770801 0.024325 -0.408207
-0.29804501 0.025199 -0.40066701
-0.30818701 0.026056999 -0.39286301
-0.31812599 0.026897 -0.38480201
-0.327856 0.027720001 -0.37648699
-0.33737001 0.028524 -0.367924
-0.34666201 0.029309999 -0.359119
-0.355726 0.030076001 -0.35007799
-0.36455601 0.030822 -0.34080601
-0.373146 0.031548999 -0.33131099
-0.38148999 0.032253999 -0.32159701
-0.389584 0.032938998 -0.311672
-0.397421 0.033601001 -0.30154201
-0.40499699 0.034242 -0.29121301
-0.41230601 0.03486 -0.28069201
-0.41934401 0.035455 -0.269988
-0.42610601 0.036026001 -0.259105
-0.43258801 0.036573999 -0.248052
-0.43878499 0.037098002 -0.236836
-0.44469401 0.037597999 -0.225463
-0.45030999 0.038073 -0.213943
-0.45562899 0.038523 -0.202282
-0.46064901 0.038947001 -0.190487
-0.46536601 0.039345998 -0.17856801
-0.469776 0.039719 -0.166531
-0.473878 0.040065002 -0.154384
-0.47766799 0.040385999 -0.14213599
-0.481143 0.040679999 -0.129794
-0.48430201 0.040947001 -0.117367
-0.487142 0.041187 -0.104862
-0.48966199 0.0414 -0.092289001
-0.49185899 0.041586 -0.079654999
-0.49373299 0.041744001 -0.066968001
-0.49528199 0.041875001 -0.054237999
-0.49650601 0.041979 -0.041471999
-0.49740201 0.042054001 -0.028678
-0.49797201 0.042102002 -0.015866
-0.49821299 0.042123001 -0.0030429999
-0.49812701 0.042116001 0.0097820004
-0.497713 0.042080998 0.022600999
-0.49697199 0.042018 0.035404
-0.495904 0.041928001 0.048184
-0.49450901 0.041809998 0.060933001
-0.492789 0.041664001 0.073641002
-0.49074501 0.041491002 0.086300999
-0.48837799 0.041290998 0.098904997
-0.48568901 0.041064002 0.111443
-0.48268199 0.04081 0.123908
-0.47935599 0.040529002 0.136291
-0.47571501 0.040220998 0.14858501
-0.47176099 0.039886001 0.16078
-0.46749699 0.039526001 0.17287099
-0.46292499 0.039138999 0.184847
-0.458049 0.038727 0.196702
-0.45287099 0.038288999 0.208427
-0.447395 0.037826002 0.220015
-0.441625 0.037338998 0.23145901
-0.43556401 0.036826 0.24275
-0.42921701 0.036288999 0.25388101
-0.42258799 0.035728998 0.264846
-0.41567999 0.035145 0.27563599
-0.408499 0.034538001 0.28624499
-0.40104899 0.033907998 0.29666501
-0.39333501 0.033256002 0.30689001
-0.385362 0.032582 0.31691399
-0.37713599 0.031886 0.32672799
-0.368662 0.031169999 0.336328
-0.359945 0.030432999 0.345707
-0.35099199 0.029676 0.35485801
-0.34180701 0.028898999 0.363776
-0.332398 0.028104 0.37245399
-0.32276899 0.027288999 0.380887
-0.312929 0.026458001 0.38907
-0.30288199 0.025607999 0.396997
-0.29263699 0.024742 0.40466201
-0.282199 0.023859 0.41206199
-0.271575 0.022961 0.41918999
-0.26077199 0.022048 0.42604199
-0.249798 0.021120001 0.432614
-0.23865899 0.020178 0.43890199
-0.227364 0.019223001 0.44490001
-0.215919 0.018254999 0.45060599
-0.20433199 0.017276 0.45601499
-0.19261 0.016285 0.46112499
-0.18076199 0.015283 0.465931
-0.16879401 0.014271 0.47042999
-0.156716 0.01325 0.47462001
-0.14453501 0.01222 0.47849801
-0.132258 0.011182 0.482061
-0.119895 0.010137 0.48530701
-0.107452 0.0090849996 0.488233
-0.094939001 0.0080270004 0.49083799
-0.082363002 0.0069639999 0.49312001
-0.069734 0.0058960002 0.495078
-0.057057999 0.0048239999 0.49671
-0.044344999 0.0037489999 0.498016
-0.031601999 0.0026720001 0.49899301
-0.018839 0.001593 0.49964201
-0.0060640001 0.00051300001 0.49996299
-0 0 -0.5
-0.012747 0.001408 -0.499836
-0.025485 0.002815 -0.49934199
-0.038206 0.00422 -0.49851999
-0.050903 0.005622 -0.49737
-0.063565001 0.0070199999 -0.495893
-0.076186001 0.0084140003 -0.49408999
-0.088757001 0.0098029999 -0.491961
-0.10127 0.011185 -0.48950899
-0.113715 0.012559 -0.48673499
-0.126086 0.013926 -0.483641
-0.138375 0.015283 -0.48022801
-0.150572 0.01663 -0.47649899
-0.162669 0.017966 -0.47245699
-0.17466 0.01929 -0.468104
-0.186536 0.020602001 -0.46344301
-0.19829001 0.0219 -0.45847699
-0.209913 0.023184 -0.45321
-0.221397 0.024452001 -0.447644
-0.23273601 0.025704 -0.44178399
-0.243922 0.026939999 -0.435633
-0.25494799 0.028156999 -0.429196
-0.26580501 0.029356999 -0.42247599
-0.27648801 0.030537 -0.41547799
-0.286989 0.031695999 -0.408207
-0.29730099 0.032834999 -0.40066701
-0.30741799 0.033952001 -0.39286301
-0.317332 0.035046998 -0.38480201
-0.32703701 0.036118999 -0.37648699
-0.33652699 0.037167002 -0.367924
-0.34579599 0.038191002 -0.359119
-0.35483801 0.039190002 -0.35007799
-0.36364499 0.040162999 -0.34080601
-0.37221399 0.041108999 -0.33131099
-0.38053799 0.042027999 -0.32159701
-0.38861099 0.042920001 -0.311672
-0.396429 0.043783002 -0.30154201
-0.40398601 0.044617999 -0.29121301
-0.411277 0.045423001 -0.28069201
-0.41829699 0.046197999 -0.269988
-0.425042 0.046943001 -0.259105
-0.431508 0.047658 -0.248052
-0.43768999 0.04834 -0.236836
-0.44358301 0.048990998 -0.225463
-0.44918501 0.04961 -0.213943
-0.45449099 0.050195999 -0.202282
-0.459499 0.050749 -0.190487
-0.46420401 0.051268999 -0.17856801
-0.46860299 0.051755 -0.166531
-0.47269401 0.052205998 -0.154384
-0.476475 0.052623998 -0.14213599
-0.47994101 0.053006999 -0.129794
-0.48309201 0.053355001 -0.117367
-0.485926 0.053668 -0.104862
-0.48843899 0.053945001 -0.092289001
-0.49063101 0.054187 -0.079654999
-0.49250001 0.054393999 -0.066968001
-0.494046 0.054563999 -0.054237999
-0.49526599 0.054699 -0.041471999
-0.49616 0.054798 -0.028678
-0.496728 0.054861002 -0.015866
-0.49696901 0.054887 -0.0030429999
-0.496883 0.054878 0.0097820004
-0.49647 0.054832 0.022600999
-0.495731 0.054751001 0.035404
-0.494665 0.054632999 0.048184
-0.493274 0.054478999 0.060933001
-0.49155799 0.05429 0.073641002
-0.489519 0.054065 0.086300999
-0.487158 0.053803999 0.098904997
-0.484476 0.053507999 0.111443
-0.48147601 0.053176001 0.123908
-0.47815901 0.052809998 0.136291
-0.474527 0.052409001 0.14858501
-0.47058299 0.051973 0.16078
-0.46632901 0.051502999 0.17287099
-0.46176901 0.050999999 0.184847
-0.45690501 0.050462 0.196702
-0.45174 0.049892001 0.208427
-0.44627801 0.049288999 0.220015
-0.44052199 0.048652999 0.23145901
-0.434477 0.047984999 0.24275
-0.42814499 0.047286 0.25388101
-0.42153201 0.046556 0.264846
-0.41464201 0.045795001 0.27563599
-0.40747899 0.045003999 0.28624499
-0.400047 0.044183001 0.29666501
-0.392353 0.043333001 0.30689001
-0.38440001 0.042454999 0.31691399
-0.376194 0.041547999 0.32672799
-0.36774099 0.040615 0.336328
-0.35904601 0.039655 0.345707
-0.350115 0.038667999 0.35485801
-0.34095299 0.037656002 0.363776
-0.33156699 0.036619999 0.37245399
-0.32196301 0.035558999 0.380887
-0.31214699 0.034474999 0.38907
-0.30212599 0.033367999 0.396997
-0.291906 0.032239001 0.40466201
-0.28149399 0.031089 0.41206199
-0.27089599 0.029919 0.41918999
-0.26012099 0.028728999 0.42604199
-0.249174 0.027519999 0.432614
-0.23806299 0.026293 0.43890199
-0.226796 0.025048001 0.44490001
-0.21538 0.023786999 0.45060599
-0.203821 0.022511 0.45601499
-0.192129 0.02122 0.46112499
-0.18031 0.019913999 0.465931
-0.168373 0.018595999 0.47042999
-0.156325 0.017264999 0.47462001
-0.14417399 0.015923001 0.47849801
-0.131928 0.014571 0.482061
-0.119595 0.013209 0.48530701
-0.107184 0.011838 0.488233
-0.094701998 0.010459 0.49083799
-0.082157999 0.0090739997 0.49312001
-0.069559999 0.0076819998 0.495078
-0.056915998 0.0062859999 0.49671
-0.044234 0.0048850002 0.498016
-0.031523999 0.003482 0.49899301
-0.018792 0.002075 0.49964201
-0.0060490002 0.00066800002 0.49996299
-0 0 -0.5
-0.012706 0.001734 -0.499836
-0.025404001 0.0034670001 -0.49934199
-0.038084999 0.005198 -0.49851999
-0.050742 0.0069260001 -0.49737
-0.063363999 0.0086479997 -0.495893
-0.075944997 0.010366 -0.49408999
-0.088477001 0.012076 -0.491961
-0.100949 0.013778 -0.48950899
-0.113356 0.015472 -0.48673499
-0.125688 0.017154999 -0.483641
-0.13793699 0.018827001 -0.48022801
-0.150095 0.020486001 -0.47649899
-0.162155 0.022132 -0.47245699
-0.174108 0.023763999 -0.468104
-0.185947 0.025379 -0.46344301
-0.19766299 0.026978999 -0.45847699
-0.209249 0.02856 -0.45321
-0.220697 0.030122001 -0.447644
-0.23199999 0.031665001 -0.44178399
-0.24315099 0.033186998 -0.435633
-0.25414199 0.034687001 -0.429196
-0.264965 0.036164001 -0.42247599
-0.27561399 0.037618 -0.41547799
-0.286082 0.039046999 -0.408207
-0.296361 0.040449999 -0.40066701
-0.30644599 0.041825999 -0.39286301
-0.31632799 0.043175001 -0.38480201
-0.32600299 0.044495001 -0.37648699
-0.33546299 0.045786999 -0.367924
-0.34470299 0.047047999 -0.359119
-0.35371599 0.048278 -0.35007799
-0.36249599 0.049476001 -0.34080601
-0.37103701 0.050641999 -0.33131099
-0.37933499 0.051773999 -0.32159701
-0.387382 0.052873001 -0.311672
-0.39517501 0.053936999 -0.30154201
-0.40270799 0.054965001 -0.29121301
-0.40997601 0.055957001 -0.28069201
-0.41697499 0.056912001 -0.269988
-0.42369801 0.057829998 -0.259105
-0.43014401 0.058708999 -0.248052
-0.436306 0.059549998 -0.236836
-0.44218099 0.060352001 -0.225463
-0.44776499 0.061113998 -0.213943
-0.45305401 0.061836001 -0.202282
-0.45804599 0.062518001 -0.190487
-0.46273601 0.063157998 -0.17856801
-0.46712199 0.063755997 -0.166531
-0.47119999 0.064313002 -0.154384
-0.47496799 0.064827003 -0.14213599
-0.47842401 0.065298997 -0.129794
-0.481565 0.065728001 -0.117367
-0.48438901 0.066113003 -0.104862
-0.48689499 0.066454999 -0.092289001
-0.48908001 0.066753 -0.079654999
-0.49094301 0.067008004 -0.066968001
-0.492484 0.067217998 -0.054237999
-0.4937 0.067383997 -0.041471999
-0.494591 0.067506 -0.028678
-0.495157 0.067583002 -0.015866
-0.49539801 0.067616001 -0.0030429999
-0.49531201 0.067603998 0.0097820004
-0.494901 0.067547999 0.022600999
-0.49416301 0.067446999 0.035404
-0.493101 0.067302004 0.048184
-0.491714 0.067112997 0.060933001
-0.490004 0.066878997 0.073641002
-0.48797199 0.066601999 0.086300999
-0.485618 0.066280998 0.098904997
-0.482945 0.065916002 0.111443
-0.479954 0.065508001 0.123908
-0.47664699 0.065056004 0.136291
-0.47302699 0.064562 0.14858501
-0.46909499 0.064025998 0.16078
-0.46485499 0.063446999 0.17287099
-0.460309 0.062826 0.184847
-0.45546001 0.062165 0.196702
-0.45031199 0.061462 0.208427
-0.44486701 0.060718998 0.220015
-0.43912899 0.059935998 0.23145901
-0.433103 0.059113 0.24275
-0.426792 0.058251999 0.25388101
-0.42019901 0.057351999 0.264846
-0.413331 0.056414999 0.27563599
-0.40619001 0.055440001 0.28624499
-0.39878201 0.054428998 0.29666501
-0.391112 0.053382002 0.30689001
-0.383185 0.052299999 0.31691399
-0.37500501 0.051183999 0.32672799
-0.366579 0.050032999 0.336328
-0.35791099 0.04885 0.345707
-0.34900799 0.047635 0.35485801
-0.33987501 0.046388999 0.363776
-0.33051899 0.045111999 0.37245399
-0.32094499 0.043804999 0.380887
-0.31116 0.042470001 0.38907
-0.301171 0.041106001 0.396997
-0.29098299 0.039716002 0.40466201
-0.280604 0.038299002 0.41206199
-0.27004001 0.036857001 0.41918999
-0.259298 0.035390999 0.42604199
-0.248386 0.033902001 0.432614
-0.23731101 0.032389998 0.43890199
-0.226079 0.030857 0.44490001
-0.214699 0.029304 0.45060599
-0.20317701 0.027731 0.45601499
-0.191522 0.026140001 0.46112499
-0.17974 0.024532 0.465931
-0.167841 0.022908 0.47042999
-0.15583 0.021268999 0.47462001
-0.143718 0.019616 0.47849801
-0.131511 0.01795 0.482061
-0.119217 0.016271999 0.48530701
-0.106845 0.014583 0.488233
-0.094402999 0.012885 0.49083799
-0.081897996 0.011178 0.49312001
-0.069339998 0.0094640004 0.495078
-0.056736 0.0077439998 0.49671
-0.044094 0.0060180002 0.498016
-0.031424001 0.0042889998 0.49899301
-0.018733 0.0025569999 0.49964201
-0.006029 0.00082299998 0.49996299
-0 0 -0.5
-0.012658 0.0020600001 -0.499836
-0.025307 0.0041180002 -0.49934199
-0.037939999 0.0061730002 -0.49851999
-0.050547 0.0082250005 -0.49737
-0.063121997 0.010271 -0.495893
-0.075654998 0.01231 -0.49408999
-0.088137999 0.014341 -0.491961
-0.100563 0.016363 -0.48950899
-0.112922 0.018374 -0.48673499
-0.12520599 0.020373 -0.483641
-0.137409 0.022358 -0.48022801
-0.14952099 0.024328999 -0.47649899
-0.161534 0.026284 -0.47245699
-0.17344099 0.028221 -0.468104
-0.18523499 0.030139999 -0.46344301
-0.196906 0.032039002 -0.45847699
-0.20844699 0.033916999 -0.45321
-0.219852 0.035773002 -0.447644
-0.231112 0.037604999 -0.44178399
-0.24222 0.039413001 -0.435633
-0.25316799 0.041193999 -0.429196
-0.26394999 0.042948 -0.42247599
-0.27455801 0.044674002 -0.41547799
-0.28498599 0.046371002 -0.408207
-0.29522601 0.048037 -0.40066701
-0.30527201 0.049672 -0.39286301
-0.315117 0.051274002 -0.38480201
-0.32475501 0.052841999 -0.37648699
-0.33417901 0.054375999 -0.367924
-0.34338301 0.055872999 -0.359119
-0.35236099 0.057333998 -0.35007799
-0.36110699 0.058757 -0.34080601
-0.369616 0.060141999 -0.33131099
-0.377882 0.061487 -0.32159701
-0.38589901 0.062790997 -0.311672
-0.39366201 0.064053997 -0.30154201
-0.40116599 0.065274999 -0.29121301
-0.40840599 0.066453002 -0.28069201
-0.415378 0.067588001 -0.269988
-0.42207599 0.068677999 -0.259105
-0.428496 0.069721997 -0.248052
-0.43463501 0.070721 -0.236836
-0.440487 0.071672998 -0.225463
-0.44604999 0.072578996 -0.213943
-0.45131901 0.073435999 -0.202282
-0.456292 0.074244998 -0.190487
-0.46096399 0.075005002 -0.17856801
-0.46533301 0.075715996 -0.166531
-0.46939501 0.076376997 -0.154384
-0.473149 0.076987997 -0.14213599
-0.476592 0.077547997 -0.129794
-0.47972101 0.078056999 -0.117367
-0.48253399 0.078515001 -0.104862
-0.48503 0.078920998 -0.092289001
-0.487207 0.079274997 -0.079654999
-0.48906299 0.079576999 -0.066968001
-0.49059701 0.079827003 -0.054237999
-0.49180901 0.080023997 -0.041471999
-0.492697 0.080169 -0.028678
-0.49326101 0.080260001 -0.015866
-0.49350101 0.080298997 -0.0030429999
-0.493415 0.080286004 0.0097820004
-0.49300501 0.080219001 0.022600999
-0.49227101 0.080099002 0.035404
-0.49121299 0.079926997 0.048184
-0.489831 0.079701997 0.060933001
-0.48812801 0.079425 0.073641002
-0.486103 0.079095997 0.086300999
-0.483758 0.078713998 0.098904997
-0.48109499 0.078281 0.111443
-0.47811601 0.077795997 0.123908
-0.47482201 0.077260002 0.136291
-0.47121501 0.076673001 0.14858501
-0.46729901 0.076035999 0.16078
-0.46307501 0.075349003 0.17287099
-0.45854601 0.074611999 0.184847
-0.45371601 0.073826 0.196702
-0.448587 0.072990999 0.208427
-0.44316301 0.072108999 0.220015
-0.43744799 0.071179003 0.23145901
-0.43144399 0.070202 0.24275
-0.42515701 0.069178998 0.25388101
-0.41859001 0.068109997 0.264846
-0.41174799 0.066996999 0.27563599
-0.40463501 0.065839998 0.28624499
-0.397255 0.064639002 0.29666501
-0.38961399 0.063395999 0.30689001
-0.381717 0.062111001 0.31691399
-0.37356901 0.060784999 0.32672799
-0.36517501 0.059418999 0.336328
-0.35653999 0.058014002 0.345707
-0.347671 0.056570999 0.35485801
-0.33857399 0.055091001 0.363776
-0.32925299 0.053574 0.37245399
-0.31971601 0.052021999 0.380887
-0.30996901 0.050436001 0.38907
-0.300017 0.048817001 0.396997
-0.28986901 0.047166001 0.40466201
-0.27952901 0.045483001 0.41206199
