# .PCD v0.7 - Point Cloud Data file format
VERSION 0.7
FIELDS x y z
SIZE 4 4 4
TYPE F F F
COUNT 1 1 1
WIDTH 1517
HEIGHT 1
VIEWPOINT 0 0 0 1 0 0 0
POINTS 1517
DATA ascii
0.94295299 0.101425 0.701639
0.94576001 0.109213 0.70291698
0.94820702 0.117147 0.70403099
0.95028698 0.125205 0.70497799
0.95199698 0.133369 0.70575702
0.95333302 0.141616 0.70636398
0.95428699 0.14992701 0.70679897
0.95485997 0.15828 0.70706099
0.94970298 0.16665401 0.71851802
0.94951302 0.175028 0.71842599
0.94894701 0.18338101 0.71815002
0.94800001 0.191691 0.717691
0.94668299 0.199939 0.71705002
0.94499302 0.208102 0.71622902
0.94293702 0.216161 0.71522999
0.94051999 0.224094 0.71405399
0.937747 0.231883 0.71270698
0.934623 0.23950601 0.71118897
0.93115997 0.24694601 0.70950699
0.92736697 0.25418299 0.70766199
0.92325002 0.261199 0.70566201
0.91882002 0.267975 0.70350999
0.91409302 0.27449599 0.70121098
0.909073 0.280745 0.69877303
0.90377998 0.28670499 0.69620001
0.89822298 0.292362 0.69349903
0.89241999 0.29770201 0.690678
0.88638002 0.30271 0.68774301
0.88012302 0.30737501 0.68470198
0.87366301 0.31168401 0.68156201
0.86701298 0.31562701 0.67833102
0.86019701 0.31919399 0.67501801
0.85322702 0.322375 0.67163098
0.84612298 0.32516301 0.66817802
0.83890301 0.32755101 0.66466802
0.83158201 0.329532 0.661111
0.82418102 0.331101 0.65751398
0.816719 0.33225599 0.65388697
0.809214 0.332991 0.65024
0.80168498 0.333307 0.64658099
0.79415202 0.333202 0.642919
0.78663301 0.33267599 0.639265
0.77914703 0.33173099 0.63562697
0.77171302 0.33036801 0.63201398
0.76435 0.328592 0.62843603
0.75707698 0.32640699 0.624901
0.74991202 0.32381901 0.621418
0.74287301 0.320833 0.61799699
0.73597699 0.317458 0.61464602
0.72924298 0.31370199 0.61137301
0.72268701 0.30957499 0.60818702
0.716326 0.30508599 0.60509503
0.71017498 0.300248 0.60210598
0.70425099 0.295073 0.59922701
0.698569 0.28957301 0.596466
0.693142 0.28376201 0.59382802
0.687985 0.27765599 0.59132099
0.68311 0.27126899 0.588952
0.67852902 0.26461801 0.58672601
0.67425603 0.25771901 0.58464903
0.67029899 0.25059101 0.582726
0.66666901 0.24325 0.580962
0.66337597 0.235716 0.57936198
0.66042697 0.228008 0.57792902
0.65783101 0.220144 0.57666701
0.65559298 0.212146 0.57557899
0.65371901 0.204032 0.57466799
0.652215 0.195824 0.573937
0.65108299 0.187543 0.57338703
0.65032703 0.179208 0.57301998
0.649948 0.17084201 0.57283598
0.649948 0.16246501 0.57283598
0.65032703 0.154099 0.57301998
0.65108299 0.14576501 0.57338703
0.652215 0.137483 0.573937
0.65371901 0.12927499 0.57466799
0.65559298 0.121162 0.57557899
0.65783101 0.113163 0.57666701
0.66042697 0.1053 0.57792902
0.66337597 0.097590998 0.57936198
0.66666901 0.090057001 0.580962
0.67029899 0.082716003 0.582726
0.67425603 0.075588003 0.58464903
0.67852902 0.068689004 0.58672601
0.68311 0.062038001 0.588952
0.687985 0.055652 0.59132099
0.693142 0.049545001 0.59382802
0.698569 0.043735001 0.596466
0.70425099 0.038235001 0.59922701
0.71017498 0.033059001 0.60210598
0.716326 0.028221 0.60509503
0.72268701 0.023732999 0.60818702
0.72924298 0.019605 0.61137301
0.73597699 0.015849 0.61464602
0.74287301 0.012474 0.61799699
0.74991202 0.0094889998 0.621418
0.75707698 0.0068999999 0.624901
0.76435 0.0047149998 0.62843603
0.77171302 0.002939 0.63201398
0.77914703 0.001577 0.63562697
0.78663301 0.00063099997 0.639265
0.79415202 0.000105 0.642919
0.80168498 0 0.64658099
0.809214 0.00031599999 0.65024
0.816719 0.001052 0.65388697
0.82418102 0.002206 0.65751398
0.83158201 0.0037760001 0.661111
0.83890301 0.0057569998 0.66466802
0.84612298 0.0081439996 0.66817802
0.85322702 0.010932 0.67163098
0.86019701 0.014113 0.67501801
0.86701298 0.017680001 0.67833102
0.87366301 0.021623001 0.68156201
0.88012302 0.025931999 0.68470198
0.88638002 0.030596999 0.68774301
0.89241999 0.035606001 0.690678
0.89822298 0.040945001 0.69349903
0.90377998 0.046602 0.69620001
0.909073 0.052563 0.69877303
0.91409302 0.058811001 0.70121098
0.91882002 0.065332003 0.70350999
0.92325002 0.072108999 0.70566201
0.92736697 0.079125002 0.70766199
0.93115997 0.086360998 0.70950699
0.934623 0.093800999 0.71118897
0.937747 0.101425 0.71270698
0.94051999 0.109213 0.71405399
0.94293702 0.117147 0.71522999
0.94499302 0.125205 0.71622902
0.94668299 0.133369 0.71705002
0.94800001 0.141616 0.717691
0.94894701 0.14992701 0.71815002
0.94951302 0.15828 0.71842599
0.94406998 0.16665401 0.72974998
0.94388002 0.175028 0.729653
0.94331998 0.18338101 0.72936302
0.94239002 0.191691 0.728881
0.94108701 0.199939 0.72820699
0.939417 0.208102 0.72734302
0.93738699 0.216161 0.72629303
0.935 0.224094 0.72505701
0.93225998 0.231883 0.72364002
0.92917699 0.23950601 0.722045
0.92575997 0.24694601 0.72027498
0.92201298 0.25418299 0.718337
0.91794699 0.261199 0.71623302
0.91357303 0.267975 0.71397001
0.908903 0.27449599 0.71155399
0.90394998 0.280745 0.70898998
0.89872301 0.28670499 0.706285
0.89323699 0.292362 0.70344597
0.88750303 0.29770201 0.70047897
0.88154 0.30271 0.697393
0.87536001 0.30737501 0.69419599
0.86897999 0.31168401 0.69089502
0.86241698 0.31562701 0.68749797
0.85568303 0.31919399 0.68401498
0.84880298 0.322375 0.680453
0.84178698 0.32516301 0.67682302
0.83465701 0.32755101 0.67313302
0.82742703 0.329532 0.66939199
0.82011998 0.331101 0.66561103
0.812751 0.33225599 0.661798
0.80533999 0.332991 0.65796298
0.79790598 0.333307 0.65411597
0.79046702 0.333202 0.65026599
0.78304201 0.33267599 0.646424
0.77564901 0.33173099 0.64259899
0.768309 0.33036801 0.63880002
0.76103801 0.328592 0.63503802
0.753856 0.32640699 0.63132203
0.74678099 0.32381901 0.62765998
0.73983002 0.320833 0.62406301
0.73302001 0.317458 0.62054002
0.72637099 0.31370199 0.61709899
0.71989697 0.30957499 0.61374903
0.713615 0.30508599 0.61049801
0.707542 0.300248 0.60735601
0.70169199 0.295073 0.60432899
0.69608098 0.28957301 0.60142499
0.69072199 0.28376201 0.59865201
0.68562901 0.27765599 0.596017
0.68081498 0.27126899 0.59352601
0.67629302 0.26461801 0.59118497
0.67207199 0.25771901 0.589001
0.66816503 0.25059101 0.58697999
0.664581 0.24325 0.58512503
0.66132897 0.235716 0.58344197
0.65841699 0.228008 0.581936
0.65585297 0.220144 0.58060902
0.65364301 0.212146 0.57946497
0.651793 0.204032 0.57850802
0.65030801 0.195824 0.577739
0.64919001 0.187543 0.57716101
0.64844298 0.179208 0.576774
0.64806902 0.17084201 0.576581
0.64806902 0.16246501 0.576581
0.64844298 0.154099 0.576774
0.64919001 0.14576501 0.57716101
0.65030801 0.137483 0.577739
0.651793 0.12927499 0.57850802
0.65364301 0.121162 0.57946497
0.65585297 0.113163 0.58060902
0.65841699 0.1053 0.581936
0.66132897 0.097590998 0.58344197
0.664581 0.090057001 0.58512503
0.66816503 0.082716003 0.58697999
0.67207199 0.075588003 0.589001
0.67629302 0.068689004 0.59118497
0.68081498 0.062038001 0.59352601
0.68562901 0.055652 0.596017
0.69072199 0.049545001 0.59865201
0.69608098 0.043735001 0.60142499
0.70169199 0.038235001 0.60432899
0.707542 0.033059001 0.60735601
0.713615 0.028221 0.61049801
0.71989697 0.023732999 0.61374903
0.72637099 0.019605 0.61709899
0.73302102 0.015849 0.62054002
0.73983002 0.012474 0.62406301
0.74678099 0.0094889998 0.62765998
0.753856 0.0068999999 0.63132203
0.76103801 0.0047149998 0.63503802
0.768309 0.002939 0.63880002
0.77564901 0.001577 0.64259899
0.78304201 0.00063099997 0.646424
0.79046601 0.000105 0.65026599
0.79790598 0 0.65411597
0.80533999 0.00031599999 0.65796298
0.812751 0.001052 0.661798
0.82011998 0.002206 0.66561103
0.82742703 0.0037760001 0.66939199
0.83465701 0.0057569998 0.67313302
0.84178698 0.0081439996 0.67682302
0.84880298 0.010932 0.680453
0.85568303 0.014113 0.68401498
0.86241698 0.017680001 0.68749797
0.86897999 0.021623001 0.69089502
0.87536001 0.025931999 0.69419599
0.88154 0.030596999 0.697393
0.88750303 0.035606001 0.70047897
0.89323699 0.040945001 0.70344597
0.89872301 0.046602 0.706285
0.90394998 0.052563 0.70898998
0.908903 0.058811001 0.71155399
0.91357303 0.065332003 0.71397001
0.91794699 0.072108999 0.71623302
0.92201298 0.079125002 0.718337
0.92575997 0.086360998 0.72027498
0.92917699 0.093800999 0.722045
0.93225998 0.101425 0.72364002
0.935 0.109213 0.72505701
0.93738699 0.117147 0.72629303
0.939417 0.125205 0.72734302
0.94108701 0.133369 0.72820699
0.94239002 0.141616 0.728881
0.94331998 0.14992701 0.72936302
0.94388002 0.15828 0.729653
0.93815303 0.16665401 0.74083698
0.93796998 0.175028 0.74073499
0.93741697 0.18338101 0.74043101
0.93649697 0.191691 0.73992598
0.93520999 0.199939 0.73921901
0.93356299 0.208102 0.73831397
0.93155998 0.216161 0.73721302
0.92920703 0.224094 0.73591799
0.926503 0.231883 0.73443198
0.92346001 0.23950601 0.73276001
0.92008698 0.24694601 0.730905
0.91639 0.25418299 0.72887301
0.91237998 0.261199 0.726668
0.90806699 0.267975 0.72429597
0.90345699 0.27449599 0.72176301
0.89857 0.280745 0.71907502
0.89341003 0.28670499 0.71623999
0.88799697 0.292362 0.71326298
0.88234001 0.29770201 0.710154
0.87645698 0.30271 0.70691901
0.87036002 0.30737501 0.70356703
0.86406702 0.31168401 0.70010698
0.85759002 0.31562701 0.69654602
0.85094702 0.31919399 0.692895
0.84415698 0.322375 0.68916202
0.83723301 0.32516301 0.68535602
0.83019799 0.32755101 0.68148798
0.823066 0.329532 0.67756701
0.81585598 0.331101 0.673603
0.80858499 0.33225599 0.66960597
0.80127299 0.332991 0.66558599
0.79393703 0.333307 0.66155303
0.78659803 0.333202 0.65751803
0.77927101 0.33267599 0.65349102
0.77197802 0.33173099 0.649481
0.76473498 0.33036801 0.64549899
0.75756103 0.328592 0.64155602
0.75047499 0.32640699 0.63766003
0.74349397 0.32381901 0.63382202
0.73663503 0.320833 0.63005102
0.72991699 0.317458 0.62635797
0.723355 0.31370199 0.622751
0.716968 0.30957499 0.61923897
0.71077001 0.30508599 0.61583197
0.704777 0.300248 0.61253703
0.69900602 0.295073 0.60936397
0.69346899 0.28957301 0.60632098
0.688182 0.28376201 0.603414
0.68315703 0.27765599 0.60065103
0.67840701 0.27126899 0.59803998
0.673944 0.26461801 0.59558702
0.66978002 0.25771901 0.59329802
0.66592503 0.25059101 0.591178
0.66238898 0.24325 0.58923399
0.65917999 0.235716 0.58747
0.65630698 0.228008 0.58589101
0.653777 0.220144 0.58450001
0.65159702 0.212146 0.58330101
0.64977098 0.204032 0.58229798
0.648305 0.195824 0.58149201
0.64720303 0.187543 0.58088499
0.64646602 0.179208 0.58047998
0.646097 0.17084201 0.58027798
0.646097 0.16246501 0.58027798
0.64646602 0.154099 0.58047998
0.64720303 0.14576501 0.58088499
0.648305 0.137483 0.58149201
0.64977098 0.12927499 0.58229798
0.65159702 0.121162 0.58330101
0.653777 0.113163 0.58450001
0.65630698 0.1053 0.58589101
0.65917999 0.097590998 0.58747
0.66238898 0.090057001 0.58923399
0.66592503 0.082716003 0.591178
0.66978002 0.075588003 0.59329802
0.673944 0.068689004 0.59558702
0.67840701 0.062038001 0.59803998
0.68315703 0.055652 0.60065103
0.688182 0.049545001 0.603414
0.69346899 0.043735001 0.60632098
0.69900602 0.038235001 0.60936397
0.70477802 0.033059001 0.61253703
0.71077001 0.028221 0.61583197
0.716968 0.023732999 0.61923897
0.723355 0.019605 0.622751
0.72991699 0.015849 0.62635797
0.73663503 0.012474 0.63005102
0.74349397 0.0094889998 0.63382202
0.75047499 0.0068999999 0.63766003
0.75756103 0.0047149998 0.64155602
0.76473498 0.002939 0.64549899
0.77197802 0.001577 0.649481
0.77927101 0.00063099997 0.65349102
0.78659701 0.000105 0.65751803
0.79393798 0 0.66155398
0.80127299 0.00031599999 0.66558599
0.80858499 0.001052 0.66960597
0.81585598 0.002206 0.673603
0.823066 0.0037760001 0.67756701
0.83019799 0.0057569998 0.68148798
0.83723301 0.0081439996 0.68535602
0.84415698 0.010932 0.68916202
0.85094702 0.014113 0.692895
0.85759002 0.017680001 0.69654602
0.86406702 0.021623001 0.70010698
0.87036002 0.025931999 0.70356703
0.87645698 0.030596999 0.70691901
0.88234001 0.035606001 0.710154
0.88799697 0.040945001 0.71326298
0.89341003 0.046602 0.71623999
0.89857 0.052563 0.71907502
0.90345699 0.058811001 0.72176301
0.90806699 0.065332003 0.72429597
0.91237998 0.072108999 0.726668
0.91639 0.079125002 0.72887301
0.92008698 0.086360998 0.730905
0.92346001 0.093800999 0.73276001
0.926503 0.101425 0.73443198
0.92920703 0.109213 0.73591799
0.93155998 0.117147 0.73721302
0.93356299 0.125205 0.73831397
0.93520999 0.133369 0.73921901
0.93649697 0.141616 0.73992598
0.93741697 0.14992701 0.74043101
0.93796998 0.15828 0.74073499
0.93195999 0.16665401 0.75177199
0.93177998 0.175028 0.75166601
0.93123299 0.18338101 0.75134802
0.930327 0.191691 0.75081903
0.92905998 0.199939 0.750081
0.92743701 0.208102 0.74913502
0.92546302 0.216161 0.74798298
0.92313999 0.224094 0.746629
0.92047697 0.231883 0.745076
0.91747701 0.23950601 0.74332798
0.91415 0.24694601 0.74138898
0.91050702 0.25418299 0.73926502
0.90655297 0.261199 0.73695898
0.9023 0.267975 0.73448002
0.89775699 0.27449599 0.73183203
0.892937 0.280745 0.72902203
0.88785303 0.28670499 0.72605801
0.88251299 0.292362 0.72294599
0.87694001 0.29770201 0.71969599
0.87113702 0.30271 0.71631402
0.86512703 0.30737501 0.71280998
0.85891998 0.31168401 0.70919299
0.85253698 0.31562701 0.70547003
0.84598702 0.31919399 0.701653
0.839293 0.322375 0.69775099
0.83246899 0.32516301 0.69377202
0.82553202 0.32755101 0.68972898
0.818501 0.329532 0.68563002
0.81139201 0.331101 0.68148601
0.80422401 0.33225599 0.67730701
0.79701602 0.332991 0.673105
0.78978401 0.333307 0.66888899
0.78254801 0.333202 0.664671
0.775325 0.33267599 0.66046
0.768134 0.33173099 0.65626901
0.76099402 0.33036801 0.65210599
0.75392199 0.328592 0.64798301
0.74693501 0.32640699 0.643911
0.740053 0.32381901 0.639898
0.73329097 0.320833 0.635957
0.726668 0.317458 0.63209599
0.72019899 0.31370199 0.62832499
0.713902 0.30957499 0.624654
0.70779198 0.30508599 0.62109202
0.70188397 0.300248 0.61764801
0.69619399 0.295073 0.61433101
0.69073498 0.28957301 0.61114901
0.68552202 0.28376201 0.60811001
0.68056798 0.27765599 0.60522199
0.67588598 0.27126899 0.60249197
0.67148602 0.26461801 0.59992802
0.66738099 0.25771901 0.59753501
0.66358101 0.25059101 0.59531897
0.66009402 0.24325 0.59328699
0.65693098 0.235716 0.591443
0.65409899 0.228008 0.58979201
0.651604 0.220144 0.58833802
0.64945501 0.212146 0.587084
0.64765501 0.204032 0.58603501
0.64621001 0.195824 0.58519298
0.645123 0.187543 0.58455902
0.64439601 0.179208 0.58413601
0.64403301 0.17084201 0.583924
0.64403301 0.16246501 0.583924
0.64439601 0.154099 0.58413601
0.645123 0.14576501 0.58455902
0.64621001 0.137483 0.58519298
0.64765501 0.12927499 0.58603501
0.64945501 0.121162 0.587084
0.651604 0.113163 0.58833802
0.65409899 0.1053 0.58979201
0.65693098 0.097590998 0.591443
0.66009402 0.090057001 0.59328699
0.66358101 0.082716003 0.59531897
0.66738099 0.075588003 0.59753501
0.67148602 0.068689004 0.59992802
0.67588598 0.062038001 0.60249197
0.68056798 0.055652 0.60522199
0.68552202 0.049545001 0.60811001
0.69073498 0.043735001 0.61114901
0.69619399 0.038235001 0.61433101
0.70188397 0.033059001 0.61764801
0.70779198 0.028221 0.62109202
0.713902 0.023732999 0.624654
0.72019899 0.019605 0.62832499
0.726668 0.015849 0.63209599
0.73329097 0.012474 0.635957
0.740053 0.0094889998 0.639898
0.74693501 0.0068999999 0.643911
0.75392199 0.0047149998 0.64798301
0.76099402 0.002939 0.65210599
0.768134 0.001577 0.65626901
0.775325 0.00063099997 0.66046
0.78254801 0.000105 0.664671
0.78978401 0 0.66888899
0.79701602 0.00031599999 0.673105
0.80422401 0.001052 0.67730701
0.81139201 0.002206 0.68148601
0.818501 0.0037760001 0.68563002
0.82553202 0.0057569998 0.68972898
0.83246899 0.0081439996 0.69377202
0.839293 0.010932 0.69775099
0.84598702 0.014113 0.701653
0.85253698 0.017680001 0.70547003
0.85891998 0.021623001 0.70919299
0.86512703 0.025931999 0.71280998
0.87113702 0.030596999 0.71631402
0.87694001 0.035606001 0.71969599
0.88251299 0.040945001 0.72294599
0.88785303 0.046602 0.72605801
0.892937 0.052563 0.72902203
0.89775699 0.058811001 0.73183203
0.9023 0.065332003 0.73448002
0.90655297 0.072108999 0.73695898
0.91050702 0.079125002 0.73926502
0.91415 0.086360998 0.74138898
0.91747701 0.093800999 0.74332798
0.92047697 0.101425 0.745076
0.92313999 0.109213 0.746629
0.92546302 0.117147 0.74798298
0.92743701 0.125205 0.74913502
0.92905998 0.133369 0.750081
0.930327 0.141616 0.75081903
0.93123299 0.14992701 0.75134802
0.93177998 0.15828 0.75166601
0.925497 0.16665401 0.76254702
0.92531699 0.175028 0.76243699
0.92478001 0.18338101 0.76210499
0.92388701 0.191691 0.761554
0.92264003 0.199939 0.76078397
0.92104 0.208102 0.75979698
0.91909701 0.216161 0.75859702
0.916807 0.224094 0.75718498
0.91418302 0.231883 0.75556499
0.91123003 0.23950601 0.75374198
0.90795302 0.24694601 0.75172102
0.90436298 0.25418299 0.74950498
0.90047002 0.261199 0.74710101
0.89627999 0.267975 0.744515
0.89180303 0.27449599 0.741754
0.88705701 0.280745 0.73882401
0.882047 0.28670499 0.73573297
0.87678999 0.292362 0.73248899
0.871297 0.29770201 0.72909898
0.865583 0.30271 0.725573
0.85966301 0.30737501 0.721919
0.85355002 0.31168401 0.71814603
0.84726 0.31562701 0.71426499
0.84081 0.31919399 0.71028399
0.83421701 0.322375 0.70621502
0.82749301 0.32516301 0.702066
0.82066101 0.32755101 0.69784898
0.81373399 0.329532 0.69357502
0.806732 0.331101 0.68925399
0.79967099 0.33225599 0.68489599
0.79257101 0.332991 0.68051398
0.785447 0.333307 0.67611802
0.778319 0.333202 0.67171901
0.77120501 0.33267599 0.66732901
0.76412201 0.33173099 0.66295803
0.75708801 0.33036801 0.65861702
0.75012201 0.328592 0.65431798
0.74324 0.32640699 0.65007102
0.73645997 0.32381901 0.64588702
0.72979999 0.320833 0.64177603
0.72327602 0.317458 0.63775003
0.71690398 0.31370199 0.63381797
0.71070099 0.30957499 0.62998998
0.70468199 0.30508599 0.626275
0.69886202 0.300248 0.622684
0.69325697 0.295073 0.61922503
0.68788099 0.28957301 0.61590701
0.68274599 0.28376201 0.61273801
0.67786598 0.27765599 0.60972703
0.67325401 0.27126899 0.60688001
0.66891998 0.26461801 0.60420603
0.66487598 0.25771901 0.60171002
0.66113198 0.25059101 0.59939998
0.65769798 0.24325 0.59728003
0.65458202 0.235716 0.595357
0.65179199 0.228008 0.59363598
0.64933598 0.220144 0.59211999
0.64721799 0.212146 0.59081298
0.64544499 0.204032 0.589719
0.64402199 0.195824 0.58884001
0.64295101 0.187543 0.58817899
0.64223498 0.179208 0.58773798
0.641877 0.17084201 0.58751702
0.641877 0.16246501 0.58751702
0.64223498 0.154099 0.58773798
0.64295101 0.14576501 0.58817899
0.64402199 0.137483 0.58884001
0.64544499 0.12927499 0.589719
0.64721799 0.121162 0.59081298
0.64933598 0.113163 0.59211999
0.65179199 0.1053 0.59363598
0.65458202 0.097590998 0.595357
0.65769798 0.090057001 0.59728003
0.66113198 0.082716003 0.59939998
0.66487598 0.075588003 0.60171002
0.66891998 0.068689004 0.60420603
0.67325401 0.062038001 0.60688001
0.67786598 0.055652 0.60972703
0.68274599 0.049545001 0.61273801
0.68788099 0.043735001 0.61590701
0.69325697 0.038235001 0.61922503
0.69886303 0.033059001 0.622684
0.70468199 0.028221 0.626275
0.71070099 0.023732999 0.62998998
0.71690398 0.019605 0.63381797
0.72327602 0.015849 0.63775003
0.72979999 0.012474 0.64177603
0.73645997 0.0094889998 0.64588702
0.74324 0.0068999999 0.65007102
0.75012201 0.0047149998 0.65431798
0.75708801 0.002939 0.65861702
0.76412201 0.001577 0.66295803
0.77120501 0.00063099997 0.66732901
0.778319 0.000105 0.67171901
0.785447 0 0.67611802
0.79257101 0.00031599999 0.68051398
0.79967099 0.001052 0.68489599
0.806732 0.002206 0.68925399
0.81373399 0.0037760001 0.69357502
0.82066101 0.0057569998 0.69784999
0.82749301 0.0081439996 0.702066
0.83421701 0.010932 0.70621502
0.84081 0.014113 0.71028399
0.84726 0.017680001 0.71426499
0.85355002 0.021623001 0.71814603
0.85966301 0.025931999 0.721919
0.865583 0.030596999 0.725573
0.871297 0.035606001 0.72909898
0.87678999 0.040945001 0.73248899
0.882047 0.046602 0.73573297
0.88705701 0.052563 0.73882401
0.89180303 0.058811001 0.741754
0.89627999 0.065332003 0.744515
0.90047002 0.072108999 0.74710101
0.90436298 0.079125002 0.74950498
0.90795302 0.086360998 0.75172102
0.91123003 0.093800999 0.75374198
0.91418302 0.101425 0.75556499
0.916807 0.109213 0.75718498
0.91909701 0.117147 0.75859702
0.92104 0.125205 0.75979698
0.92264003 0.133369 0.76078397
0.92388701 0.141616 0.761554
0.92478001 0.14992701 0.76210499
0.92531699 0.15828 0.76243699
0.91876298 0.16665401 0.773157
0.91858703 0.175028 0.77304202
0.91806 0.18338101 0.77269697
0.91718 0.191691 0.77212399
0.91595298 0.199939 0.77132303
0.91438001 0.208102 0.77029598
0.91246301 0.216161 0.76904702
0.91021299 0.224094 0.76757801
0.90763003 0.231883 0.76589298
0.90472299 0.23950601 0.76399601
0.90149701 0.24694601 0.76189297
0.89796299 0.25418299 0.759588
0.89412999 0.261199 0.75708699
0.89000702 0.267975 0.75439698
0.88560301 0.27449599 0.75152397
0.88093001 0.280745 0.74847603
0.87600303 0.28670499 0.74525899
0.87082702 0.292362 0.74188399
0.86541998 0.29770201 0.73835701
0.85979998 0.30271 0.73468798
0.85396999 0.30737501 0.730887
0.84795302 0.31168401 0.72696197
0.84176701 0.31562701 0.72292399
0.83541697 0.31919399 0.71878201
0.82892698 0.322375 0.71454799
0.82231098 0.32516301 0.71023202
0.81558597 0.32755101 0.705845
0.80877 0.329532 0.70139802
0.80187798 0.331101 0.69690198
0.79492903 0.33225599 0.69236898
0.78794098 0.332991 0.68781
0.78092998 0.333307 0.683236
0.77391499 0.333202 0.67865902
0.766913 0.33267599 0.67409098
0.759942 0.33173099 0.66954303
0.75301999 0.33036801 0.66502702
0.74616402 0.328592 0.66055501
0.73939103 0.32640699 0.65613598
0.73271799 0.32381901 0.65178299
0.72616303 0.320833 0.64750701
0.719742 0.317458 0.643318
0.713471 0.31370199 0.63922602
0.70736599 0.30957499 0.63524401
0.70144302 0.30508599 0.63137901
0.69571602 0.300248 0.62764299
0.69019902 0.295073 0.624044
0.68490797 0.28957301 0.620592
0.67985398 0.28376201 0.61729503
0.67505199 0.27765599 0.61416203
0.67051202 0.27126899 0.61119998
0.66624701 0.26461801 0.60841799
0.66226703 0.25771901 0.60582101
0.65858299 0.25059101 0.60341799
0.65520298 0.24325 0.60121298
0.65213603 0.235716 0.59921199
0.64938998 0.228008 0.59742099
0.646972 0.220144 0.59584302
0.644889 0.212146 0.59448397
0.64314401 0.204032 0.59334499
0.641743 0.195824 0.59243101
0.64068902 0.187543 0.59174401
0.63998502 0.179208 0.59128398
0.63963199 0.17084201 0.59105498
0.63963199 0.16246501 0.59105498
0.63998502 0.154099 0.59128398
0.64068902 0.14576501 0.59174401
0.641743 0.137483 0.59243101
0.64314401 0.12927499 0.59334499
0.644889 0.121162 0.59448397
0.646972 0.113163 0.59584302
0.64938998 0.1053 0.59742099
0.65213603 0.097590998 0.59921199
0.65520298 0.090057001 0.60121298
0.65858299 0.082716003 0.60341799
0.66226703 0.075588003 0.60582101
0.66624701 0.068689004 0.60841799
0.67051202 0.062038001 0.61119998
0.67505199 0.055652 0.61416203
0.67985398 0.049545001 0.61729503
0.68490797 0.043735001 0.620592
0.69019902 0.038235001 0.624044
0.69571602 0.033059001 0.62764299
0.70144302 0.028221 0.63137901
0.70736599 0.023732999 0.63524401
0.713471 0.019605 0.63922602
0.719742 0.015849 0.643318
0.72616303 0.012474 0.64750701
0.73271799 0.0094889998 0.65178299
0.73939103 0.0068999999 0.65613598
0.74616402 0.0047149998 0.66055501
0.75301999 0.002939 0.66502702
0.759942 0.001577 0.66954303
0.766913 0.00063099997 0.67409098
0.77391499 0.000105 0.67865902
0.78092998 0 0.683236
0.78794098 0.00031599999 0.68781
0.79492903 0.001052 0.69236898
0.80187798 0.002206 0.69690198
0.80877 0.0037760001 0.70139802
0.81558597 0.0057569998 0.705845
0.82231098 0.0081439996 0.71023202
0.82892698 0.010932 0.71454799
0.83541697 0.014113 0.71878201
0.84176701 0.017680001 0.72292399
0.84795302 0.021623001 0.72696197
0.85396999 0.025931999 0.730887
0.85979998 0.030596999 0.734689
0.86541998 0.035606001 0.73835701
0.87082702 0.040945001 0.74188399
0.87600303 0.046602 0.74525899
0.88093001 0.052563 0.74847603
0.88560301 0.058811001 0.75152397
0.89000702 0.065332003 0.75439698
0.89412999 0.072108999 0.75708699
0.89796299 0.079125002 0.759588
0.90149701 0.086360998 0.76189297
0.90472299 0.093800999 0.76399601
0.90763003 0.101425 0.76589298
0.91021299 0.109213 0.76757801
0.91246301 0.117147 0.76904702
0.91438001 0.125205 0.77029598
0.91595298 0.133369 0.77132303
0.91718 0.141616 0.77212399
0.91806 0.14992701 0.77269697
0.91858703 0.15828 0.77304202
0.91176701 0.16665401 0.78359401
0.91159302 0.175028 0.78347498
0.91107303 0.18338101 0.783117
0.91021001 0.191691 0.78252202
0.90899998 0.199939 0.78169
0.907453 0.208102 0.78062397
0.90556997 0.216161 0.77932698
0.90335703 0.224094 0.77780199
0.90081698 0.231883 0.77605301
0.89796001 0.23950601 0.77408397
0.89478999 0.24694601 0.7719
0.89131302 0.25418299 0.76950699
0.88754702 0.261199 0.76691002
0.88349003 0.267975 0.764117
0.87915999 0.27449599 0.76113498
0.87456697 0.280745 0.75796998
0.86971998 0.28670499 0.75463098
0.86462998 0.292362 0.75112599
0.859317 0.29770201 0.74746501
0.853787 0.30271 0.74365598
0.84805697 0.30737501 0.73970902
0.84214002 0.31168401 0.73563403
0.83605301 0.31562701 0.73144197
0.82981199 0.31919399 0.72714198
0.82343 0.322375 0.72274703
0.81692499 0.32516301 0.71826601
0.81031299 0.32755101 0.71371102
0.80361003 0.329532 0.70909399
0.79683399 0.331101 0.70442599
0.79000098 0.33225599 0.69972003
0.78312898 0.332991 0.69498599
0.776236 0.333307 0.690238
0.76933801 0.333202 0.68548602
0.76245302 0.33267599 0.68074399
0.75559801 0.33173099 0.67602199
0.74879199 0.33036801 0.67133403
0.74204999 0.328592 0.66668999
0.73539001 0.32640699 0.662103
0.72882998 0.32381901 0.657583
0.72238398 0.320833 0.65314299
0.71607 0.317458 0.648794
0.70990402 0.31370199 0.64454699
0.70390099 0.30957499 0.64041197
0.69807702 0.30508599 0.63639998
0.69244498 0.300248 0.63252097
0.68702102 0.295073 0.62878501
0.68181801 0.28957301 0.62519997
0.67684901 0.28376201 0.62177801
0.672126 0.27765599 0.61852503
0.66766298 0.27126899 0.61545002
0.66346902 0.26461801 0.61256099
0.65955597 0.25771901 0.60986602
0.65593302 0.25059101 0.60737002
0.65260899 0.24325 0.60508102
0.64959401 0.235716 0.60300398
0.64689398 0.228008 0.60114402
0.64451599 0.220144 0.59950602
0.64246702 0.212146 0.598095
0.64075202 0.204032 0.59691298
0.63937402 0.195824 0.59596401
0.63833803 0.187543 0.59525001
0.63764501 0.179208 0.59477299
0.637299 0.17084201 0.59453499
0.637299 0.16246501 0.59453499
0.63764501 0.154099 0.59477299
0.63833803 0.14576501 0.59525001
0.63937402 0.137483 0.59596401
0.64075202 0.12927499 0.59691298
0.64246702 0.121162 0.598095
0.64451599 0.113163 0.59950602
0.64689398 0.1053 0.60114402
0.64959401 0.097590998 0.60300398
0.65260899 0.090057001 0.60508102
0.65593302 0.082716003 0.60737002
0.65955597 0.075588003 0.60986602
0.66346902 0.068689004 0.61256099
0.66766298 0.062038001 0.61545002
0.672126 0.055652 0.61852503
0.67684901 0.049545001 0.62177801
0.68181801 0.043735001 0.62519997
0.68702102 0.038235001 0.62878501
0.69244498 0.033059001 0.63252097
0.69807702 0.028221 0.63639998
0.70390099 0.023732999 0.64041197
0.70990402 0.019605 0.64454699
0.71607 0.015849 0.648794
0.72238398 0.012474 0.65314299
0.72882998 0.0094889998 0.657583
0.73539001 0.0068999999 0.662103
0.74204999 0.0047149998 0.66668999
0.74879199 0.002939 0.67133403
0.75559801 0.001577 0.67602199
0.76245302 0.00063099997 0.68074399
0.76933801 0.000105 0.68548602
0.776236 0 0.690238
0.78312898 0.00031599999 0.69498599
0.79000098 0.001052 0.69972003
0.79683399 0.002206 0.70442599
0.80361003 0.0037760001 0.70909399
0.81031299 0.0057569998 0.71371102
0.81692499 0.0081439996 0.71826601
0.82343 0.010932 0.72274703
0.82981199 0.014113 0.72714198
0.83605301 0.017680001 0.73144197
0.84214002 0.021623001 0.73563403
0.84805697 0.025931999 0.73970902
0.853787 0.030596999 0.74365598
0.859317 0.035606001 0.74746501
0.86462998 0.040945001 0.75112599
0.86971998 0.046602 0.75463098
0.87456697 0.052563 0.75796998
0.87915999 0.058811001 0.76113498
0.88349003 0.065332003 0.764117
0.88754702 0.072108999 0.76691002
0.89131302 0.079125002 0.76950699
0.89478999 0.086360998 0.7719
0.89796001 0.093800999 0.77408397
0.90081698 0.101425 0.77605301
0.90335703 0.109213 0.77780199
0.90556997 0.117147 0.77932698
0.907453 0.125205 0.78062397
0.90899998 0.133369 0.78169
0.91021001 0.141616 0.78252202
0.91107303 0.14992701 0.783117
0.91159302 0.15828 0.78347498
0.90451002 0.16665401 0.79385298
0.90433699 0.175028 0.79372901
0.90382701 0.18338101 0.79335803
0.90298003 0.191691 0.792741
0.901793 0.199939 0.791879
0.90027303 0.208102 0.790775
0.89842302 0.216161 0.78943098
0.89624703 0.224094 0.78785098
0.89375299 0.231883 0.78603798
0.89094299 0.23950601 0.78399801
0.88783002 0.24694601 0.781735
0.884417 0.25418299 0.77925497
0.88071299 0.261199 0.77656502
0.87673002 0.267975 0.77367097
0.87247699 0.27449599 0.77058101
0.86796302 0.280745 0.76730102
0.86320299 0.28670499 0.76384199
0.85820299 0.292362 0.76020998
0.852983 0.29770201 0.75641698
0.84754997 0.30271 0.75247002
0.84192002 0.30737501 0.74838001
0.83611 0.31168401 0.74415803
0.83013099 0.31562701 0.73981398
0.82399899 0.31919399 0.73535901
0.81773001 0.322375 0.73080403
0.81133902 0.32516301 0.726161
0.80484301 0.32755101 0.72144198
0.79825902 0.329532 0.71665698
0.79160202 0.331101 0.71182102
0.78488898 0.33225599 0.70694399
0.778139 0.332991 0.70204002
0.77136701 0.333307 0.697119
0.76459002 0.333202 0.69219601
0.75782698 0.33267599 0.68728203
0.75109297 0.33173099 0.68238997
0.744407 0.33036801 0.67753202
0.73778403 0.328592 0.67272002
0.73124099 0.32640699 0.66796702
0.724796 0.32381901 0.663284
0.71846402 0.320833 0.65868402
0.71226197 0.317458 0.65417701
0.706204 0.31370199 0.64977598
0.70030701 0.30957499 0.64549202
0.69458503 0.30508599 0.64133501
0.689053 0.300248 0.63731498
0.683725 0.295073 0.63344401
0.67861301 0.28957301 0.62972999
0.67373198 0.28376201 0.62618297
0.669092 0.27765599 0.62281299
0.66470701 0.27126899 0.619627
0.66058803 0.26461801 0.61663401
0.65674299 0.25771901 0.613841
0.653184 0.25059101 0.61125499
0.64991897 0.24325 0.60888302
0.64695698 0.235716 0.606731
0.64430499 0.228008 0.60480398
0.64196903 0.220144 0.60310698
0.639956 0.212146 0.60164398
0.63827097 0.204032 0.60042
0.636917 0.195824 0.59943599
0.63589901 0.187543 0.59869701
0.63521898 0.179208 0.598203
0.63487899 0.17084201 0.59795499
0.63487899 0.16246501 0.59795499
0.63521898 0.154099 0.598203
0.63589901 0.14576501 0.59869701
0.636917 0.137483 0.59943599
0.63827097 0.12927499 0.60042
0.639956 0.121162 0.60164398
0.64196903 0.113163 0.60310698
0.64430499 0.1053 0.60480398
0.64695698 0.097590998 0.606731
0.64991897 0.090057001 0.60888302
0.653184 0.082716003 0.61125499
0.65674299 0.075588003 0.613841
0.66058803 0.068689004 0.61663401
0.66470701 0.062038001 0.619627
0.669092 0.055652 0.62281299
0.67373198 0.049545001 0.62618297
0.67861301 0.043735001 0.62972999
0.683725 0.038235001 0.63344401
0.689053 0.033059001 0.63731498
0.69458503 0.028221 0.64133501
0.70030701 0.023732999 0.64549202
0.706204 0.019605 0.64977598
0.71226197 0.015849 0.65417701
0.71846402 0.012474 0.65868402
0.724796 0.0094889998 0.663284
0.73124099 0.0068999999 0.66796702
0.73778403 0.0047149998 0.67272002
0.744407 0.002939 0.67753202
0.75109297 0.001577 0.68238997
0.75782698 0.00063099997 0.68728203
0.76459002 0.000105 0.69219601
0.77136701 0 0.697119
0.778139 0.00031599999 0.70204002
0.78488898 0.001052 0.70694399
0.79160202 0.002206 0.71182102
0.79825902 0.0037760001 0.71665698
0.80484301 0.0057569998 0.72144198
0.81133902 0.0081439996 0.726161
0.81773001 0.010932 0.73080403
0.82399899 0.014113 0.73535901
0.83013099 0.017680001 0.73981398
0.83611 0.021623001 0.74415803
0.84192002 0.025931999 0.74838001
0.84754997 0.030596999 0.75247002
0.852983 0.035606001 0.75641698
0.85820299 0.040945001 0.76020998
0.86320299 0.046602 0.76384199
0.86796302 0.052563 0.76730102
0.87247699 0.058811001 0.77058101
0.87673002 0.065332003 0.77367097
0.88071299 0.072108999 0.77656502
0.884417 0.079125002 0.77925497
0.88783002 0.086360998 0.781735
0.89094299 0.093800999 0.78399801
0.89375299 0.101425 0.78603798
0.89624703 0.109213 0.78785098
0.89842302 0.117147 0.78943098
0.90027303 0.125205 0.790775
0.901793 0.133369 0.791879
0.90298003 0.141616 0.792741
0.90382701 0.14992701 0.79335803
0.90433699 0.15828 0.79372901
0.89699697 0.16665401 0.80392498
0.89682698 0.175028 0.80379701
0.89632702 0.18338101 0.80341399
0.89549297 0.191691 0.80277503
0.89433002 0.199939 0.801884
0.89283699 0.208102 0.80074197
0.89102298 0.216161 0.79935199
0.88888699 0.224094 0.79771799
0.88643998 0.231883 0.79584301
0.88368303 0.23950601 0.793733
0.88062698 0.24694601 0.79139203
0.87727702 0.25418299 0.78882802
0.87364298 0.261199 0.78604501
0.86973298 0.267975 0.78305203
0.86556 0.27449599 0.77985501
0.86113 0.280745 0.77646399
0.856457 0.28670499 0.77288598
0.85154998 0.292362 0.76912999
0.84642702 0.29770201 0.76520598
0.841093 0.30271 0.76112401
0.83556998 0.30737501 0.75689399
0.82986701 0.31168401 0.752527
0.82399899 0.31562701 0.748034
0.817981 0.31919399 0.74342698
0.81182802 0.322375 0.73871601
0.805556 0.32516301 0.73391402
0.79918098 0.32755101 0.72903198
0.79271901 0.329532 0.72408402
0.78618598 0.331101 0.719082
0.779598 0.33225599 0.71403801
0.772973 0.332991 0.708965
0.76632601 0.333307 0.70387697
0.75967598 0.333202 0.69878501
0.75303799 0.33267599 0.69370198
0.74642903 0.33173099 0.68864202
0.73986697 0.33036801 0.68361801
0.73336703 0.328592 0.67864102
0.726946 0.32640699 0.67372501
0.72062099 0.32381901 0.66888201
0.71440703 0.320833 0.66412401
0.70831901 0.317458 0.65946299
0.70237398 0.31370199 0.65491098
0.69658703 0.30957499 0.65047997
0.69097102 0.30508599 0.64617997
0.68554199 0.300248 0.64202303
0.68031198 0.295073 0.63801903
0.675295 0.28957301 0.63417798
0.67050499 0.28376201 0.63050902
0.66595203 0.27765599 0.62702298
0.66164798 0.27126899 0.62372798
0.65760499 0.26461801 0.62063199
0.65383202 0.25771901 0.61774403
0.65033901 0.25059101 0.61506897
0.64713502 0.24325 0.612616
0.64422798 0.235716 0.61039001
0.64162499 0.228008 0.60839701
0.639332 0.220144 0.60664201
0.637357 0.212146 0.605129
0.63570303 0.204032 0.603863
0.63437402 0.195824 0.60284603
0.63337499 0.187543 0.602081
0.63270801 0.179208 0.60157001
0.63237399 0.17084201 0.60131401
0.63237399 0.16246501 0.60131401
0.63270801 0.154099 0.60157001
0.63337499 0.14576501 0.602081
0.63437402 0.137483 0.60284603
0.63570303 0.12927499 0.603863
0.637357 0.121162 0.605129
0.639332 0.113163 0.60664201
0.64162499 0.1053 0.60839701
0.64422798 0.097590998 0.61039001
0.64713502 0.090057001 0.612616
0.65033901 0.082716003 0.61506897
0.65383202 0.075588003 0.61774403
0.65760499 0.068689004 0.62063199
0.66164798 0.062038001 0.62372798
0.66595203 0.055652 0.62702298
0.67050499 0.049545001 0.63050902
0.675295 0.043735001 0.63417798
0.68031198 0.038235001 0.63801903
0.68554199 0.033059001 0.64202303
0.69097102 0.028221 0.64617997
0.69658703 0.023732999 0.65047997
0.70237398 0.019605 0.65491098
0.70831901 0.015849 0.65946299
0.71440703 0.012474 0.66412401
0.72062099 0.0094889998 0.66888201
0.726946 0.0068999999 0.67372501
0.73336703 0.0047149998 0.67864102
0.73986697 0.002939 0.68361801
0.74642903 0.001577 0.68864202
0.75303799 0.00063099997 0.69370198
0.75967598 0.000105 0.69878501
0.76632601 0 0.70387697
0.772973 0.00031599999 0.708965
0.779598 0.001052 0.71403801
0.78618598 0.002206 0.719082
0.79271901 0.0037760001 0.72408402
0.79918098 0.0057569998 0.72903198
0.805556 0.0081439996 0.73391402
0.81182802 0.010932 0.73871601
0.817981 0.014113 0.74342698
0.82399899 0.017680001 0.748034
0.82986701 0.021623001 0.752527
0.83556998 0.025931999 0.75689399
0.841093 0.030596999 0.76112401
0.84642702 0.035606001 0.76520598
0.85154998 0.040945001 0.76912999
0.856457 0.046602 0.77288598
0.86113 0.052563 0.77646399
0.86556 0.058811001 0.77985501
0.86973298 0.065332003 0.78305203
0.87364298 0.072108999 0.78604501
0.87727702 0.079125002 0.78882802
0.88062698 0.086360998 0.79139203
0.88368303 0.093800999 0.793733
0.88643998 0.101425 0.79584301
0.88888699 0.109213 0.79771799
0.89102298 0.117147 0.79935199
0.89283699 0.125205 0.80074197
0.89433002 0.133369 0.801884
0.89549297 0.141616 0.80277503
0.89632702 0.14992701 0.80341399
0.89682698 0.15828 0.80379701
0.88923001 0.16665401 0.813806
0.88906699 0.175028 0.81367397
0.88857698 0.18338101 0.81327701
0.88775998 0.191691 0.81261897
0.886617 0.199939 0.81169802
0.88515699 0.208102 0.81051898
0.88337702 0.216161 0.809084
0.88128299 0.224094 0.80739599
0.87888002 0.231883 0.80546099
0.87617999 0.23950601 0.80328202
0.87318301 0.24694601 0.80086499
0.86989999 0.25418299 0.798217
0.866337 0.261199 0.79534501
0.86250299 0.267975 0.79225397
0.85841 0.27449599 0.78895402
0.85406703 0.280745 0.78545201
0.84948301 0.28670499 0.781757
0.84467697 0.292362 0.777879
0.83964998 0.29770201 0.77382803
0.83442301 0.30271 0.76961303
0.82900798 0.30737501 0.76524597
0.82341599 0.31168401 0.760737
0.817662 0.31562701 0.75609797
0.81176198 0.31919399 0.75134099
0.80572999 0.322375 0.74647701
0.79957998 0.32516301 0.74151802
0.79333001 0.32755101 0.73647797
0.78699398 0.329532 0.73136997
0.78058898 0.331101 0.72620499
0.77412999 0.33225599 0.72099698
0.76763397 0.332991 0.71575898
0.76111799 0.333307 0.71050501
0.75459701 0.333202 0.70524698
0.74808902 0.33267599 0.69999999
0.74160999 0.33173099 0.69477499
0.73517603 0.33036801 0.68958801
0.72880298 0.328592 0.68444902
0.72250801 0.32640699 0.67937303
0.71630597 0.32381901 0.67437202
0.71021301 0.320833 0.66946
0.70424497 0.317458 0.66464698
0.69841701 0.31370199 0.65994799
0.69274199 0.30957499 0.65537202
0.68723601 0.30508599 0.65093303
0.68191302 0.300248 0.64664
0.67678601 0.295073 0.642506
0.67186701 0.28957301 0.63854003
0.66716999 0.28376201 0.63475299
0.66270602 0.27765599 0.631154
0.65848702 0.27126899 0.62775099
0.65452302 0.26461801 0.62455499
0.650823 0.25771901 0.62157202
0.64739901 0.25059101 0.61881101
0.64425701 0.24325 0.61627799
0.64140701 0.235716 0.61398
0.63885498 0.228008 0.61192203
0.63660699 0.220144 0.61010998
0.63467002 0.212146 0.60854799
0.63304901 0.204032 0.60724002
0.63174599 0.195824 0.60619003
0.63076699 0.187543 0.60540003
0.63011199 0.179208 0.60487199
0.629785 0.17084201 0.604608
0.629785 0.16246501 0.604608
0.63011199 0.154099 0.60487199
0.63076699 0.14576501 0.60540003
0.63174599 0.137483 0.60619003
0.63304901 0.12927499 0.60724002
0.63467002 0.121162 0.60854799
0.63660699 0.113163 0.61010998
0.63885498 0.1053 0.61192203
0.64140701 0.097590998 0.61398
0.64425701 0.090057001 0.61627799
0.64739901 0.082716003 0.61881101
0.650823 0.075588003 0.62157202
0.65452302 0.068689004 0.62455499
0.65848702 0.062038001 0.62775099
0.66270602 0.055652 0.631154
0.66716999 0.049545001 0.63475299
0.67186701 0.043735001 0.63854003
0.67678601 0.038235001 0.642506
0.68191302 0.033059001 0.64664102
0.68723601 0.028221 0.65093303
0.69274199 0.023732999 0.65537202
0.69841701 0.019605 0.65994799
0.70424497 0.015849 0.664648
0.71021402 0.012474 0.66946
0.71630597 0.0094889998 0.67437202
0.72250801 0.0068999999 0.67937303
0.72880298 0.0047149998 0.68444902
0.73517603 0.002939 0.68958801
0.74160999 0.001577 0.69477499
0.74808902 0.00063099997 0.69999999
0.75459701 0.000105 0.70524698
0.76111799 0 0.71050501
0.76763397 0.00031599999 0.71575898
0.77412999 0.001052 0.72099698
0.78058898 0.002206 0.72620499
0.78699398 0.0037760001 0.73136997
0.79333001 0.0057569998 0.73647898
0.79957998 0.0081439996 0.74151802
0.80572999 0.010932 0.74647701
0.81176198 0.014113 0.75134099
0.817662 0.017680001 0.75609797
0.82341599 0.021623001 0.760737
0.82900798 0.025931999 0.76524597
0.83442301 0.030596999 0.76961303
0.83964998 0.035606001 0.77382803
0.84467697 0.040945001 0.777879
0.84948301 0.046602 0.781757
0.85406703 0.052563 0.78545201
0.85841 0.058811001 0.78895402
0.86250299 0.065332003 0.79225397
0.866337 0.072108999 0.79534501
0.86989999 0.079125002 0.798217
0.87318301 0.086360998 0.80086499
0.87617999 0.093800999 0.80328202
0.87888002 0.101425 0.80546099
0.88128299 0.109213 0.80739599
0.88337702 0.117147 0.809084
0.88515699 0.125205 0.81051898
0.886617 0.133369 0.81169802
0.88775998 0.141616 0.81261897
0.88857698 0.14992701 0.81327701
0.88906699 0.15828 0.81367397
0.88121998 0.16665401 0.823488
0.88106 0.175028 0.82335198
0.88058001 0.18338101 0.82294399
0.87977999 0.191691 0.82226402
0.87866002 0.199939 0.821316
0.87722999 0.208102 0.82010001
0.87548703 0.216161 0.81862003
0.87343699 0.224094 0.816881
0.87108302 0.231883 0.81488597
0.86843699 0.23950601 0.81264001
0.86550301 0.24694601 0.81014901
0.86228698 0.25418299 0.807419
0.85879701 0.261199 0.80445701
0.85504299 0.267975 0.80127102
0.85103297 0.27449599 0.79786903
0.84678 0.280745 0.79425901
0.84229302 0.28670499 0.79045099
0.83758301 0.292362 0.78645301
0.83266097 0.29770201 0.78227699
0.82754201 0.30271 0.77793199
0.82223701 0.30737501 0.77342999
0.81676 0.31168401 0.76878202
0.81112498 0.31562701 0.764
0.80534601 0.31919399 0.75909603
0.799438 0.322375 0.75408202
0.79341501 0.32516301 0.74897099
0.78729397 0.32755101 0.74377501
0.78108799 0.329532 0.738509
0.77481401 0.331101 0.73318499
0.768489 0.33225599 0.72781599
0.76212698 0.332991 0.722417
0.75574398 0.333307 0.71700001
0.749358 0.333202 0.71158099
0.742984 0.33267599 0.70617098
0.73663801 0.33173099 0.70078599
0.73033601 0.33036801 0.69543803
0.72409499 0.328592 0.69014102
0.71792901 0.32640699 0.68490797
0.71185499 0.32381901 0.67975301
0.70588797 0.320833 0.67468899
0.70004201 0.317458 0.66972798
0.69433302 0.31370199 0.66488302
0.68877602 0.30957499 0.66016698
0.68338299 0.30508599 0.65559
0.67816901 0.300248 0.65116602
0.67314798 0.295073 0.64690399
0.66833001 0.28957301 0.64281601
0.66373003 0.28376201 0.63891101
0.65935802 0.27765599 0.63520098
0.65522498 0.27126899 0.63169402
0.65134299 0.26461801 0.62839901
0.64771998 0.25771901 0.62532401
0.64436603 0.25059101 0.62247801
0.641289 0.24325 0.61986601
0.63849699 0.235716 0.61749703
0.635997 0.228008 0.615376
0.63379598 0.220144 0.61350799
0.631899 0.212146 0.61189801
0.63031101 0.204032 0.61054999
0.629035 0.195824 0.60946703
0.62807602 0.187543 0.60865301
0.62743503 0.179208 0.608109
0.627114 0.17084201 0.60783702
0.627114 0.16246501 0.60783702
0.62743503 0.154099 0.608109
0.62807602 0.14576501 0.60865301
0.629035 0.137483 0.60946703
0.63031101 0.12927499 0.61054999
0.631899 0.121162 0.61189801
0.63379598 0.113163 0.61350799
0.635997 0.1053 0.615376
0.63849699 0.097590998 0.61749703
0.641289 0.090057001 0.61986601
0.64436603 0.082716003 0.62247801
0.64771998 0.075588003 0.62532401
0.65134299 0.068689004 0.62839901
0.65522498 0.062038001 0.63169402
0.65935802 0.055652 0.63520098
0.66373003 0.049545001 0.63891101
0.66833001 0.043735001 0.64281601
0.67314798 0.038235001 0.64690399
0.67817003 0.033059001 0.65116602
0.68338299 0.028221 0.65559
0.68877602 0.023732999 0.66016698
0.69433302 0.019605 0.66488302
0.70004201 0.015849 0.66972798
0.70588797 0.012474 0.67468899
0.71185499 0.0094889998 0.67975301
0.71792901 0.0068999999 0.68490797
0.72409499 0.0047149998 0.69014102
0.73033601 0.002939 0.69543803
0.73663801 0.001577 0.70078599
0.742984 0.00063099997 0.70617098
0.749358 0.000105 0.71158099
0.75574398 0 0.71700102
0.76212698 0.00031599999 0.722417
0.768489 0.001052 0.72781599
0.77481401 0.002206 0.73318499
0.78108799 0.0037760001 0.738509
0.78729397 0.0057569998 0.74377501
0.79341602 0.0081439996 0.74897099
0.799438 0.010932 0.75408202
0.80534601 0.014113 0.75909603
0.81112498 0.017680001 0.764
0.81676 0.021623001 0.76878202
0.82223701 0.025931999 0.77342999
0.82754201 0.030596999 0.77793199
0.83266097 0.035606001 0.78227699
0.83758301 0.040945001 0.78645301
0.84229302 0.046602 0.79045099
0.84678 0.052563 0.79425901
0.85103297 0.058811001 0.79786903
0.85504299 0.065332003 0.80127102
0.85879701 0.072108999 0.80445701
0.86228698 0.079125002 0.807419
0.86550301 0.086360998 0.81014901
0.86843699 0.093800999 0.81264001
0.87108302 0.101425 0.81488597
0.87343699 0.109213 0.816881
0.87548703 0.117147 0.81862003
0.87722999 0.125205 0.82010001
0.87866002 0.133369 0.821316
0.87977999 0.141616 0.82226402
0.88058001 0.14992701 0.82294399
0.88106 0.15828 0.82335198
0.87296999 0.16665401 0.83296603
0.87281299 0.175028 0.83282602
0.872343 0.18338101 0.83240497
0.87155998 0.191691 0.83170599
0.87046701 0.199939 0.83073002
0.86906302 0.208102 0.82947898
0.86736 0.216161 0.82795602
0.86535299 0.224094 0.82616502
0.86305302 0.231883 0.82411098
0.86046302 0.23950601 0.82179999
0.857593 0.24694601 0.81923598
0.85444701 0.25418299 0.81642598
0.85102999 0.261199 0.81337798
0.84736001 0.267975 0.81009799
0.84343702 0.27449599 0.80659699
0.83927703 0.280745 0.802881
0.83488297 0.28670499 0.79896098
0.83027601 0.292362 0.794846
0.82546198 0.29770201 0.79054803
0.82045299 0.30271 0.78607601
0.81526297 0.30737501 0.78144199
0.80990499 0.31168401 0.776658
0.80439198 0.31562701 0.77173501
0.798738 0.31919399 0.76668698
0.79295701 0.322375 0.76152599
0.78706503 0.32516301 0.75626498
0.78107601 0.32755101 0.75091797
0.77500498 0.329532 0.74549699
0.76886702 0.331101 0.740017
0.76267803 0.33225599 0.73449099
0.75645298 0.332991 0.72893399
0.75020897 0.333307 0.72335899
0.74396098 0.333202 0.71777999
0.73772502 0.33267599 0.71221203
0.731516 0.33173099 0.70666897
0.72535098 0.33036801 0.70116401
0.71924502 0.328592 0.69571197
0.71321201 0.32640699 0.69032598
0.70727003 0.32381901 0.68502003
0.70143199 0.320833 0.67980802
0.69571298 0.317458 0.67470199
0.69012702 0.31370199 0.66971499
0.68469 0.30957499 0.66486001
0.67941397 0.30508599 0.66014999
0.67431301 0.300248 0.655595
0.66939998 0.295073 0.651209
0.66468698 0.28957301 0.64700103
0.66018599 0.28376201 0.64298201
0.655909 0.27765599 0.63916302
0.65186602 0.27126899 0.635553
0.648067 0.26461801 0.63216102
0.64452302 0.25771901 0.62899703
0.64124101 0.25059101 0.62606698
0.63823098 0.24325 0.62337899
0.635499 0.235716 0.62094003
0.63305402 0.228008 0.61875701
0.63090003 0.220144 0.61683398
0.629044 0.212146 0.61517698
0.62748998 0.204032 0.61378998
0.626243 0.195824 0.61267501
0.62530398 0.187543 0.61183703
0.624677 0.179208 0.61127698
0.62436301 0.17084201 0.61099702
0.62436301 0.16246501 0.61099702
0.624677 0.154099 0.61127698
0.62530398 0.14576501 0.61183703
0.626243 0.137483 0.61267501
0.62748998 0.12927499 0.61378998
0.629044 0.121162 0.61517698
0.63090003 0.113163 0.61683398
0.63305402 0.1053 0.61875701
0.635499 0.097590998 0.62094003
0.63823098 0.090057001 0.62337899
0.64124101 0.082716003 0.62606698
0.64452302 0.075588003 0.62899703
0.648067 0.068689004 0.63216102
0.65186602 0.062038001 0.635553
0.655909 0.055652 0.63916302
0.66018599 0.049545001 0.64298201
0.66468698 0.043735001 0.64700103
0.66939998 0.038235001 0.651209
0.67431301 0.033059001 0.655595
0.67941397 0.028221 0.66014999
0.68469 0.023732999 0.66486001
0.69012702 0.019605 0.66971499
0.69571298 0.015849 0.67470199
0.70143199 0.012474 0.67980802
0.70727003 0.0094889998 0.68502003
0.71321201 0.0068999999 0.69032598
0.71924502 0.0047149998 0.69571197
0.72535098 0.002939 0.70116401
0.731516 0.001577 0.70666897
0.73772502 0.00063099997 0.71221203
0.74396098 0.000105 0.71777999
0.75020897 0 0.72335899
0.75645298 0.00031599999 0.72893399
0.76267803 0.001052 0.73449099
0.76886702 0.002206 0.740017
0.77500498 0.0037760001 0.74549699
0.78107601 0.0057569998 0.75091797
0.78706503 0.0081439996 0.75626498
0.79295701 0.010932 0.76152599
0.798738 0.014113 0.76668698
0.80439198 0.017680001 0.77173501
0.80990499 0.021623001 0.776658
0.81526297 0.025931999 0.78144199
0.82045299 0.030596999 0.78607601
0.82546198 0.035606001 0.79054803
0.83027601 0.040945001 0.794846
0.83488297 0.046602 0.79896098
0.83927703 0.052563 0.802881
0.84343702 0.058811001 0.80659699
0.84736001 0.065332003 0.81009799
0.85102999 0.072108999 0.81337798
0.85444701 0.079125002 0.81642598
0.857593 0.086360998 0.81923598
0.86046302 0.093800999 0.82179999
0.86305302 0.101425 0.82411098
0.86535299 0.109213 0.82616502
0.86736 0.117147 0.82795602
0.86906302 0.125205 0.82947898
0.87046701 0.133369 0.83073002
0.87155998 0.141616 0.83170599
0.872343 0.14992701 0.83240497
0.87281299 0.15828 0.83282602
0.864483 0.16665401 0.842233
0.86432999 0.175028 0.84209001
0.86387002 0.18338101 0.84165698
0.86310703 0.191691 0.84094
0.862037 0.199939 0.83993697
0.86066699 0.208102 0.83864999
0.85900003 0.216161 0.83708298
0.85703999 0.224094 0.83524299
0.85479301 0.231883 0.83313298
