# .PCD v0.7 - Point Cloud Data file format
VERSION 0.7
FIELDS x y z
SIZE 4 4 4
TYPE F F F
COUNT 1 1 1
WIDTH 1403
HEIGHT 1
VIEWPOINT 0 0 0 1 0 0 0
POINTS 1403
DATA ascii
0.0223598 0.54757202 -0.51984799
-0.023871999 0.54718602 -0.51999098
-0.0250012 0.54725802 -0.52010399
-0.0270277 0.54726398 -0.520307
-0.0291338 0.54745102 -0.520567
0.020100901 0.54729199 -0.519333
0.018268401 0.54753703 -0.51894701
-0.0167477 0.54745603 -0.51911497
-0.0191328 0.54737002 -0.51951897
-0.020518299 0.547786 -0.519786
0.017015601 0.54727203 -0.51853502
0.0152007 0.54734099 -0.51798302
-0.0139908 0.54724699 -0.51830602
-0.0153032 0.54762399 -0.518857
0.0139367 0.54716903 -0.51739597
-0.0109608 0.54728699 -0.51724702
-0.012314 0.54763597 -0.51795799
0.0126813 0.54690897 -0.51664799
0.0109912 0.54728299 -0.51631099
-0.0090386001 0.54723001 -0.51647598
0.0090877004 0.54755098 -0.515993
0.0079728002 0.54719502 -0.51526898
-0.0059564002 0.54725599 -0.51528603
-0.0072007002 0.54748201 -0.51601899
0.0067612999 0.54706699 -0.51477301
0.0050225002 0.54701501 -0.51427698
0.0038582999 0.54750299 -0.51484001
0.0026342999 0.547647 -0.51490098
0.0010016999 0.54745501 -0.51451898
-0.00085700001 0.54721898 -0.51418197
-0.0016344 0.547723 -0.51499999
-0.0028832001 0.54706001 -0.51413298
-0.0039382 0.54758 -0.51513898
0.033420201 0.54858899 -0.65602601
0.032148398 0.548356 -0.65586698
0.0302564 0.548711 -0.65572
0.0271143 0.54817098 -0.655599
0.025238501 0.54831702 -0.65522498
-0.040242001 0.548365 -0.65539002
0.058438402 0.54842597 -0.654917
0.0230645 0.548244 -0.65464902
0.0217703 0.54877001 -0.65417498
-0.038997799 0.54826701 -0.65454602
0.058906801 0.548217 -0.65354198
0.053754698 0.548087 -0.65418798
0.020357801 0.54865801 -0.65338898
-0.054129899 0.548715 -0.65224802
0.0174118 0.54869199 -0.65102702
-0.0559812 0.54833299 -0.65126401
0.0596046 0.548756 -0.65105402
-0.0567118 0.54795301 -0.65018803
0.0602636 0.54842597 -0.64972198
0.016537501 0.548805 -0.65008301
0.0608491 0.54816097 -0.64853901
-0.057299901 0.54849201 -0.647829
0.061372299 0.54852003 -0.64688498
0.0146725 0.54786801 -0.64704001
-0.057811201 0.54825401 -0.64652199
0.0619017 0.54831302 -0.645612
0.013501 0.54848802 -0.645271
-0.058361001 0.548365 -0.64464903
0.062474199 0.54837102 -0.643682
0.0128617 0.54826701 -0.643529
-0.058756199 0.54813498 -0.643502
0.062901102 0.54818499 -0.64249301
0.0119722 0.54831398 -0.64162898
0.0111786 0.54836202 -0.64045697
-0.059381399 0.54847503 -0.64063197
0.063762799 0.547984 -0.63927698
0.0102714 0.54849398 -0.63927299
-0.060009498 0.54818201 -0.63784301
0.064045198 0.54818898 -0.63684398
-0.060135599 0.548361 -0.63654798
0.064146802 0.54832 -0.63555402
-0.060440801 0.54840201 -0.63347697
-0.060671899 0.54786098 -0.63219303
-0.060600199 0.54842502 -0.63041598
0.064352497 0.54849499 -0.62859797
-0.0605211 0.54891598 -0.628793
-0.060780998 0.54826701 -0.62764102
-0.061010402 0.54807597 -0.62282598
0.064170398 0.54846799 -0.62169802
-0.060971901 0.54824299 -0.62171799
0.0640928 0.54812801 -0.61926502
-0.017317001 0.54823703 -0.61885101
-0.0194734 0.54815799 -0.61947799
-0.0610574 0.54809397 -0.61990899
-0.0179896 0.548325 -0.61764801
-0.060996301 0.54832298 -0.61779898
0.063816801 0.548186 -0.616552
-0.017969299 0.548751 -0.61645901
0.063815497 0.547952 -0.61541402
-0.0140741 0.54833102 -0.615556
-0.061025102 0.54842502 -0.615812
0.063490801 0.54861999 -0.61452299
-0.0150186 0.54870403 -0.614272
-0.0180736 0.548823 -0.61537403
0.063730903 0.54790598 -0.613352
-0.0158465 0.54808003 -0.61330098
-0.061151601 0.54830801 -0.61354101
-0.016517 0.54772502 -0.612064
0.063818097 0.54763103 -0.61147398
-0.061193999 0.548383 -0.61147702
0.063469402 0.54856598 -0.61054897
-0.016499899 0.54798198 -0.61033303
0.063796997 0.54791403 -0.60860902
-0.0162763 0.54840702 -0.60855901
0.063549101 0.54876399 -0.607449
0.063854903 0.548159 -0.60643798
-0.061332099 0.548392 -0.60566401
-0.0171858 0.54845899 -0.60482699
-0.0179806 0.54829198 -0.60348701
-0.061403401 0.54835898 -0.60364199
0.064209603 0.54830301 -0.60248703
-0.018773001 0.54823399 -0.60212398
0.064305201 0.54842401 -0.601219
-0.0196208 0.54789501 -0.60108602
-0.061398 0.54841 -0.60166901
-0.061308101 0.54859799 -0.60040301
0.064489499 0.54841399 -0.59939599
-0.061195999 0.54883498 -0.59933299
0.064805597 0.54771799 -0.59833503
-0.020912999 0.54834998 -0.59858799
-0.061345398 0.54853302 -0.59823197
0.064545996 0.54869002 -0.59733999
-0.0225989 0.54887599 -0.59707803
-0.061330199 0.54852903 -0.596497
0.064573601 0.54887098 -0.59517598
0.064853303 0.54798698 -0.59443998
-0.061592501 0.54773903 -0.594886
0.064659499 0.54869801 -0.59330601
0.064571701 0.549034 -0.59153998
-0.0611034 0.54852802 -0.59108299
0.064822398 0.54804999 -0.590352
-0.0611417 0.54848599 -0.58946002
0.064773999 0.547934 -0.588337
0.064543404 0.54843801 -0.58655697
0.064417802 0.54851699 -0.58484697
-0.061171301 0.54828203 -0.58455402
0.064354099 0.54846102 -0.58240497
-0.061160799 0.54815102 -0.58044201
0.064764202 0.54767001 -0.57726902
0.064532198 0.54863799 -0.57625902
-0.061192598 0.54844499 -0.57607698
0.064544499 0.548935 -0.57450497
-0.061365001 0.54829198 -0.57433498
-0.061671399 0.54761899 -0.57322299
-0.0613668 0.54860997 -0.57236898
-0.061301101 0.54899502 -0.57037097
0.065097898 0.54815501 -0.569754
-0.061530799 0.54845297 -0.56860697
-0.061784402 0.54780501 -0.56755197
-0.0614466 0.54876798 -0.56631798
0.065206803 0.54819602 -0.56538397
0.065171503 0.54830402 -0.56397098
-0.0614575 0.54874498 -0.56454402
-0.061803799 0.54777002 -0.56337702
-0.061549 0.54838699 -0.56244302
-0.061639499 0.547966 -0.56032199
0.065211102 0.54821599 -0.55948502
-0.061381798 0.54854798 -0.55937803
-0.061734799 0.547656 -0.55836701
0.065067798 0.54844397 -0.55724698
-0.061290801 0.54875398 -0.55741203
0.065061197 0.548244 -0.55605602
-0.0614697 0.54837799 -0.55637902
0.064977899 0.54806799 -0.55402702
-0.061718602 0.54790002 -0.55442101
-0.061470501 0.54870701 -0.55319399
0.064821102 0.54820198 -0.552329
-0.0617259 0.54812402 -0.55149299
0.0645651 0.54865402 -0.55048198
-0.061811101 0.54788601 -0.55029398
0.064782798 0.54767102 -0.549483
-0.061599702 0.54846901 -0.54934502
0.064516798 0.54837298 -0.54846102
-0.0613764 0.54898798 -0.548365
0.06436 0.54857302 -0.54676503
-0.061463501 0.54861599 -0.546354
-0.0617368 0.547723 -0.54550499
-0.061400902 0.54839802 -0.54441202
0.064019598 0.54837 -0.54328603
0.063338198 0.54859102 -0.54111701
-0.060952902 0.54820198 -0.54112297
0.062723704 0.54878998 -0.53982699
-0.060444102 0.548491 -0.539204
0.061919902 0.54802698 -0.53759199
0.061136302 0.54822201 -0.53632599
-0.059314299 0.54858899 -0.536098
0.0602694 0.548428 -0.53516197
0.059376799 0.54859698 -0.53408498
0.058358502 0.548531 -0.53288698
0.057577901 0.54852802 -0.53210098
-0.057757001 0.54794699 -0.53264499
0.056456301 0.54829699 -0.53102899
0.055195801 0.54834002 -0.53003502
-0.056129701 0.54836202 -0.53020602
0.053521 0.54799598 -0.52890998
0.051662099 0.54856998 -0.52799499
0.049671199 0.54861897 -0.52696103
-0.052144799 0.54826999 -0.52644199
0.045946401 0.54840398 -0.52526802
0.044114798 0.548316 -0.52455401
0.042273801 0.548307 -0.52391899
-0.047796998 0.54843199 -0.52423501
0.0409186 0.548567 -0.52351302
-0.044206999 0.548015 -0.52306801
-0.0459585 0.548253 -0.52362603
0.037018899 0.54868001 -0.52254599
0.035143498 0.54816902 -0.52212602
-0.039918799 0.548123 -0.52204198
-0.0410285 0.548361 -0.52229202
0.032017 0.54875499 -0.52152699
-0.0340163 0.54830301 -0.52118897
-0.036159199 0.54845601 -0.521496
0.026107199 0.548401 -0.520491
0.0240582 0.548199 -0.520181
0.0214033 0.54860198 -0.51981997
-0.021867 0.54819202 -0.51996303
-0.0229562 0.54827899 -0.52005702
-0.026014101 0.54826802 -0.52031201
-0.028024901 0.54834002 -0.520531
-0.0303874 0.54861498 -0.52079803
0.0199656 0.54852998 -0.51953697
0.017090499 0.54837 -0.51891899
-0.0142479 0.54858202 -0.51896298
-0.0182625 0.54818898 -0.51957899
-0.0193979 0.54872602 -0.51983202
0.016025901 0.54814702 -0.51858801
0.0142214 0.54838198 -0.51819003
-0.0110829 0.54837 -0.51798201
0.0127923 0.54803097 -0.51755899
0.0110662 0.54825997 -0.517214
-0.0089408001 0.54830599 -0.51730698
0.0100343 0.54791999 -0.51663798
0.0091458 0.548603 -0.51701999
0.0082420995 0.54815 -0.51641703
0.0070157 0.54824901 -0.51629603
-0.0060842 0.54825801 -0.51642901
-0.0070710001 0.54849601 -0.51691997
0.0057639 0.54799998 -0.51582098
0.0042984001 0.54855299 -0.516204
0.0031518999 0.54855102 -0.51606703
0.0020347 0.54853201 -0.51595598
0.00024600001 0.54802501 -0.51530701
-0.0010656 0.54855502 -0.51597399
-0.0029404 0.54805201 -0.51556998
-0.0041391002 0.54840899 -0.516159
0.057973001 0.54888099 -0.65604901
0.053286798 0.54969102 -0.65604401
-0.0414402 0.548769 -0.65607297
0.053766999 0.54868698 -0.65549302
0.031004 0.54955298 -0.655725
0.029088501 0.54923803 -0.65570199
0.0271069 0.54926199 -0.655532
0.024816999 0.549384 -0.65505999
0.023724999 0.54909903 -0.65481901
-0.039641701 0.54931998 -0.65498799
0.058312599 0.54940599 -0.65377998
0.0533811 0.54936397 -0.653341
0.0589475 0.54906201 -0.65239203
0.0189273 0.54930699 -0.652408
-0.053291101 0.54923701 -0.65149701
-0.0551528 0.549505 -0.65163797
-0.0559646 0.54926801 -0.65052903
0.059599198 0.54974902 -0.65008903
-0.056685802 0.54886198 -0.64923501
0.060274798 0.549447 -0.64870602
0.015662501 0.54889202 -0.64905101
0.0147942 0.54899698 -0.64793903
-0.056619 0.54984999 -0.64808601
0.0140048 0.54912299 -0.64675599
-0.057234701 0.54949802 -0.64675498
0.061334498 0.54955298 -0.64587998
-0.057766698 0.54924101 -0.64551401
0.061856799 0.54929799 -0.64461702
-0.058317099 0.54926997 -0.64364803
0.062415 0.54933 -0.64262402
0.0120371 0.54913998 -0.64272398
-0.058771402 0.54899698 -0.64228898
0.062817901 0.54910702 -0.64145702
0.0110775 0.54927498 -0.641644
0.0100956 0.54934603 -0.640535
0.063187003 0.54930001 -0.63957
-0.0592754 0.549438 -0.63937598
0.0633623 0.54942399 -0.63840199
-0.0593987 0.549851 -0.63783503
0.063446403 0.54981202 -0.636832
-0.059951 0.54927897 -0.63575703
0.0639323 0.54912102 -0.63478202
-0.0600437 0.54942101 -0.63465703
0.063943103 0.54932898 -0.63263702
-0.0602451 0.549339 -0.63240099
0.064029001 0.54917198 -0.63151997
0.064151302 0.54894698 -0.629686
0.064087301 0.54913998 -0.62766403
-0.060683701 0.54868698 -0.62645
0.064072102 0.54915202 -0.62555802
-0.060423698 0.549564 -0.62560099
0.063988999 0.549299 -0.62438399
0.064013399 0.54914302 -0.62328202
-0.060527101 0.549339 -0.62364799
-0.060434401 0.54963499 -0.62154299
0.063818298 0.54917097 -0.62058002
0.063516401 0.549707 -0.619497
-0.060457502 0.54962897 -0.61944801
0.063533999 0.549384 -0.61843199
-0.0186393 0.549079 -0.61823398
-0.0604362 0.549757 -0.61826301
-0.0172232 0.54940802 -0.61815399
-0.060560498 0.54951501 -0.61720097
0.063312799 0.54947901 -0.61670703
-0.013005 0.548603 -0.61602402
-0.060534202 0.54975402 -0.615493
-0.0129194 0.54916 -0.61455202
-0.0607691 0.54922599 -0.61451799
-0.013966 0.54915899 -0.61362201
0.063186198 0.549236 -0.61296499
-0.013042 0.54957598 -0.61255699
-0.0148763 0.54890603 -0.61283898
-0.0609277 0.54897201 -0.61255199
0.063207097 0.54917902 -0.61171502
-0.0140109 0.54951799 -0.61148602
-0.0156305 0.54863298 -0.61131197
-0.0148734 0.549362 -0.610273
-0.060899202 0.54913902 -0.61057597
0.063175499 0.54940802 -0.60944599
0.063183501 0.54955202 -0.608325
-0.0150356 0.549532 -0.60875398
-0.060924899 0.54915202 -0.60887301
-0.015733801 0.54915798 -0.60736698
-0.060932901 0.54921699 -0.60759997
0.063394502 0.54944599 -0.60630101
0.063755199 0.54878402 -0.60510498
-0.0159945 0.549362 -0.60553801
-0.060984202 0.54928499 -0.60477698
0.063825898 0.54909003 -0.60348201
-0.016956801 0.54924899 -0.60342997
-0.0177518 0.54913998 -0.60229599
-0.061042301 0.54920202 -0.60251302
-0.060970899 0.54934299 -0.60124099
-0.0189393 0.54917097 -0.60045898
-0.019820301 0.549115 -0.59932101
0.0642533 0.54939198 -0.59811801
-0.021737499 0.54902798 -0.59781897
-0.020948701 0.54993701 -0.59794998
0.064322002 0.54954499 -0.59611303
-0.060948499 0.54914701 -0.59446901
-0.060871899 0.549178 -0.59327
-0.0605754 0.54982901 -0.59192199
0.064397797 0.549523 -0.58994299
0.064334497 0.54944301 -0.58786201
-0.060948402 0.54907501 -0.58789802
-0.060924299 0.549151 -0.58653998
0.0640698 0.54947698 -0.58330202
-0.060759898 0.54929698 -0.583327
-0.060520198 0.54996598 -0.58209097
0.064151503 0.54913503 -0.58151299
-0.060848799 0.54893899 -0.58157998
-0.060612299 0.54968297 -0.58045202
0.064158998 0.54930502 -0.579364
-0.060761701 0.54928303 -0.57945102
0.0642552 0.54917097 -0.57822502
-0.060882401 0.54910201 -0.57775098
0.064492702 0.549312 -0.57335103
-0.061078701 0.54925501 -0.57338703
0.064790703 0.54866302 -0.57223397
0.064509198 0.54962099 -0.57138503
0.064809799 0.548904 -0.570526
0.0645997 0.54973602 -0.56932902
0.064855799 0.54911703 -0.56842703
-0.061153699 0.54949802 -0.56716502
0.0649544 0.54899597 -0.56645399
0.0645748 0.55000198 -0.56418103
0.064970903 0.54891098 -0.562352
-0.0611418 0.54940802 -0.56239998
-0.061058301 0.54947299 -0.56105697
0.0649947 0.54890299 -0.56040502
0.064536698 0.54992098 -0.556252
-0.061070699 0.54944301 -0.55525702
0.064563297 0.549456 -0.55434
0.064430401 0.54952502 -0.552598
-0.061251301 0.54935098 -0.55199301
-0.061271202 0.54933202 -0.55058402
-0.061132699 0.54949099 -0.54735702
0.064039402 0.54918498 -0.54508102
-0.060950901 0.54919398 -0.54313099
0.063420199 0.54944998 -0.54229099
-0.060433801 0.54964203 -0.54096502
0.061905202 0.549254 -0.53840202
-0.0599159 0.54934901 -0.53837901
0.0612772 0.54934102 -0.537211
-0.059459399 0.54951799 -0.53722101
0.0604802 0.54961097 -0.53602898
0.059577301 0.54981297 -0.53483802
-0.0586151 0.54879397 -0.53476399
-0.0577728 0.54920602 -0.533351
-0.057114299 0.549321 -0.53222799
-0.056308798 0.54951799 -0.53105199
0.054184601 0.54930103 -0.52951902
-0.055073101 0.54930598 -0.52926499
0.052694902 0.54898 -0.528606
-0.054075301 0.54926199 -0.52819997
0.050633099 0.54905701 -0.52752799
-0.0529963 0.54922903 -0.52729201
0.048807699 0.54919201 -0.52662802
0.047273099 0.549375 -0.52595502
-0.051227599 0.54936397 -0.52615303
0.045980301 0.54948598 -0.52542198
0.044731598 0.54954201 -0.52493602
-0.050113 0.54921001 -0.525451
0.042941 0.54935402 -0.52426898
-0.046915401 0.54925197 -0.52407902
0.041583601 0.54963303 -0.52384299
0.040189601 0.54937297 -0.52339703
0.038310099 0.54923099 -0.522888
-0.0440537 0.54928797 -0.52325499
-0.0455404 0.54973102 -0.52375799
0.036193602 0.54953402 -0.52245098
0.034301002 0.54885501 -0.52200103
-0.038918901 0.549119 -0.52197999
-0.040033601 0.549303 -0.522214
-0.041116301 0.54944998 -0.52246702
-0.042575501 0.54887402 -0.52274001
0.031103 0.54943901 -0.521375
0.029187899 0.54887599 -0.52099299
-0.031987101 0.54922003 -0.52101803
-0.0350441 0.549371 -0.521433
-0.037560798 0.54880899 -0.52173001
0.0276388 0.54893398 -0.52073801
0.025157901 0.549317 -0.520428
0.0230531 0.54922098 -0.520136
-0.0208499 0.54917002 -0.52003002
-0.0240173 0.54929602 -0.52025902
-0.027020499 0.54929501 -0.52052498
-0.028955 0.54930401 -0.52070898
0.0204685 0.54968101 -0.51981002
0.019176601 0.54939598 -0.51954502
0.0180899 0.54930502 -0.51934499
0.0160718 0.54929298 -0.51899099
-0.0130263 0.54940099 -0.51897597
-0.0150486 0.54928797 -0.51934898
-0.016271099 0.54919702 -0.51952797
-0.0174473 0.54978198 -0.51980799
0.0144122 0.54970503 -0.51881897
0.0129366 0.54934502 -0.51836503
-0.0101289 0.54931498 -0.51822901
-0.0118732 0.54916298 -0.51859498
0.0109387 0.549496 -0.51802701
0.0098403003 0.549582 -0.51788098
0.0078019002 0.54934502 -0.51739103
-0.0059480001 0.549299 -0.51732099
-0.0070972 0.54974902 -0.51787603
0.0060036001 0.54920799 -0.51703799
0.0041104001 0.549523 -0.51708502
0.0023544999 0.549698 -0.51710302
0.00092979998 0.54896599 -0.51636899
-1.53e-05 0.54961997 -0.51698297
-0.001213 0.54970598 -0.517097
-0.0024606001 0.54904503 -0.516581
-0.0040185 0.54931402 -0.51700699
0.0572761 0.55032402 -0.65594101
0.033767499 0.55061001 -0.65601599
0.032152101 0.55023903 -0.65580601
0.0261143 0.550515 -0.65526497
-0.041179799 0.55057102 -0.65600902
0.053272001 0.55034697 -0.65449798
0.0250016 0.55046099 -0.65505999
0.0229344 0.55006802 -0.65463001
0.021633999 0.55047202 -0.654212
-0.039008498 0.55028802 -0.65463698
0.0575945 0.55070299 -0.65402198
0.020157199 0.55040503 -0.65338898
0.058230899 0.55037498 -0.652686
-0.0542452 0.55039501 -0.651977
0.0589079 0.55006099 -0.65140802
0.0180174 0.55028301 -0.65179801
0.0170356 0.55036098 -0.65098
-0.0528863 0.55029899 -0.650989
0.015884699 0.55004102 -0.64977902
-0.0520932 0.55071801 -0.65004301
-0.055925 0.55011201 -0.64970303
0.059570499 0.55079299 -0.64910603
0.0149347 0.550152 -0.64876199
0.060355999 0.55048001 -0.64743298
0.014064 0.550255 -0.64765698
0.0132509 0.55038202 -0.64644498
-0.0565622 0.55071503 -0.64698499
-0.0571629 0.55041599 -0.64569098
0.061291501 0.55053699 -0.64487898
0.0125741 0.54999602 -0.64478701
-0.057700999 0.55012298 -0.64449197
0.061801702 0.550273 -0.64358199
0.0118438 0.55010301 -0.64368701
0.0108989 0.55011201 -0.64256501
-0.058125399 0.550403 -0.64250201
0.0623121 0.55042398 -0.64138901
0.0099472003 0.55027002 -0.641765
-0.0586785 0.54990703 -0.64117998
0.0093069999 0.55013901 -0.64083499
0.0625581 0.55065298 -0.63988602
-0.0585467 0.55076802 -0.640082
-0.0593573 0.55048603 -0.63666302
0.063340299 0.55037701 -0.63555598
0.063347198 0.550524 -0.63444698
0.063362598 0.55062598 -0.63318002
0.063406199 0.550614 -0.63158
0.063528299 0.55037099 -0.63051099
-0.060043398 0.55026698 -0.631006
0.063546799 0.550358 -0.62935799
-0.0600385 0.55043697 -0.629785
-0.060121398 0.55029202 -0.62856698
0.063410699 0.55070603 -0.62729597
-0.060231201 0.55004102 -0.62737399
0.063362204 0.55082297 -0.62543601
-0.060112599 0.55053902 -0.62464398
0.063459396 0.55052102 -0.62352598
-0.060110599 0.550497 -0.62235099
0.063701697 0.549757 -0.62197298
0.063322403 0.55049098 -0.62080097
0.062850498 0.55030799 -0.61556703
0.0625939 0.55075997 -0.61453199
-0.060214899 0.55058402 -0.61445999
0.062521197 0.55086201 -0.61228597
-0.0119387 0.55005097 -0.61215502
-0.060342502 0.55035299 -0.61250901
0.062628299 0.55062199 -0.61121202
-0.0129854 0.54992199 -0.61135602
-0.060590498 0.54982901 -0.61150402
-0.0121092 0.55050898 -0.61047101
-0.0137347 0.54994601 -0.61021399
-0.0602961 0.55055302 -0.61013001
0.062540002 0.55095798 -0.60967898
-0.0131498 0.55058199 -0.60855103
-0.060287099 0.55071902 -0.60822302
-0.0147603 0.550062 -0.60725498
-0.060811501 0.54959702 -0.60648698
-0.0149534 0.55036801 -0.60550898
-0.060433101 0.55052799 -0.60553199
0.063203901 0.55051601 -0.60442102
-0.015782701 0.549932 -0.60438597
0.0633514 0.55047798 -0.60330403
-0.060681101 0.550017 -0.60334802
0.0637343 0.54979998 -0.60208499
-0.0161079 0.55036002 -0.60251498
-0.0170373 0.55012602 -0.60152
-0.060490299 0.55043697 -0.60163301
0.063793398 0.55012101 -0.60042202
-0.016450601 0.55090702 -0.600851
-0.0178602 0.55010003 -0.60042298
-0.0187953 0.55004299 -0.59928602
-0.0607218 0.54985201 -0.599464
-0.019762101 0.55010998 -0.59825802
-0.0607474 0.549806 -0.59792602
-0.020284601 0.550758 -0.59735203
-0.060690399 0.549914 -0.59655601
-0.0603314 0.55066001 -0.59538102
0.064120002 0.55030102 -0.59487599
0.0641471 0.550331 -0.593611
-0.060389899 0.55037099 -0.59342003
0.064288102 0.54995 -0.59245402
-0.060654201 0.54968798 -0.590253
0.064103 0.550421 -0.58930397
-0.060363501 0.55054498 -0.58946198
0.064065501 0.550183 -0.58710301
-0.060382701 0.55067199 -0.587363
0.063979097 0.55005097 -0.58509302
-0.060657602 0.54986602 -0.58540797
-0.060456801 0.550363 -0.58440202
0.063807502 0.55024803 -0.582488
0.0638218 0.55022901 -0.58046103
-0.0604528 0.55040503 -0.57833302
-0.060434401 0.55059803 -0.57726097
0.064001799 0.55014199 -0.57672203
-0.060686599 0.54987198 -0.57648599
-0.060505901 0.55065501 -0.57528597
0.064106897 0.55014598 -0.57471699
-0.060783301 0.54993498 -0.57441002
-0.060513701 0.55089998 -0.57358998
0.0641957 0.55030501 -0.57237703
-0.060783699 0.55022901 -0.57242799
-0.060867399 0.55012703 -0.57047302
0.064414203 0.55045003 -0.568138
-0.060897499 0.55010301 -0.56838697
0.064448901 0.55044198 -0.56629801
-0.060871702 0.55026299 -0.56634301
-0.060974199 0.55000597 -0.56520402
0.064440198 0.55036199 -0.56247097
-0.060477801 0.55098301 -0.56120902
0.064448901 0.55046099 -0.560408
0.064608999 0.55004603 -0.55931401
-0.0608165 0.549909 -0.55934101
0.064680599 0.549748 -0.55780703
-0.060823001 0.54987103 -0.55742902
-0.060526501 0.55068898 -0.55632401
-0.060527399 0.55082297 -0.55444098
0.064213403 0.55032301 -0.55336398
-0.0608279 0.550188 -0.55353802
0.064119302 0.55021501 -0.55102199
-0.060855899 0.55025798 -0.55131501
0.064030297 0.55012101 -0.54899597
-0.060863301 0.550219 -0.54922098
0.063919298 0.55013502 -0.54706198
-0.060518298 0.550897 -0.547203
-0.060849499 0.55005002 -0.546341
0.063491002 0.55092502 -0.54512799
-0.0608637 0.54988801 -0.545187
-0.060724702 0.55004197 -0.54410499
0.063675299 0.54975498 -0.543773
-0.060373198 0.55038601 -0.54227
0.062865503 0.55022299 -0.54148
0.062377099 0.55016398 -0.54016399
-0.0598315 0.55021799 -0.53934002
0.0613655 0.55048299 -0.53810501
-0.059420101 0.550394 -0.53816301
0.060642701 0.55066699 -0.536856
-0.0587903 0.55034798 -0.536349
-0.0581991 0.55049002 -0.53510797
0.058736701 0.54986203 -0.53377098
-0.057232201 0.550502 -0.53314197
0.057776701 0.54987597 -0.53267902
0.056721099 0.549887 -0.53163201
-0.056465801 0.55067599 -0.53190702
0.055679802 0.54983902 -0.53070098
0.0546216 0.55062097 -0.53005099
-0.055273902 0.55050999 -0.53009999
0.053146798 0.55029899 -0.52906799
-0.054336201 0.550583 -0.52901101
0.051988401 0.55015898 -0.52841598
-0.053305101 0.55056 -0.52801597
0.0501118 0.55033201 -0.52746803
-0.052211002 0.55046499 -0.52713501
0.0478625 0.55030602 -0.52635598
-0.0503296 0.55058801 -0.52596301
0.046583701 0.55072099 -0.52585399
-0.049096901 0.550237 -0.52518499
0.042951498 0.550488 -0.52441698
-0.047072299 0.55038297 -0.52434498
0.0400033 0.55051798 -0.52349001
0.0390133 0.55011499 -0.523175
-0.042968601 0.55022001 -0.52311897
0.037415002 0.55056399 -0.52283603
0.036016401 0.55061603 -0.52252901
0.033230498 0.55021 -0.52187198
-0.038099099 0.54997802 -0.52194798
-0.040167201 0.55044502 -0.522416
-0.0415118 0.550686 -0.52279502
0.0320554 0.55038702 -0.52161801
0.0301152 0.55029303 -0.52122802
0.0289771 0.55007797 -0.52101803
0.027378 0.55056399 -0.52080399
-0.0299401 0.55020797 -0.52086699
-0.0330135 0.55029899 -0.521236
-0.0359754 0.55032301 -0.52166802
0.026172301 0.55036002 -0.52063799
0.0241317 0.55029202 -0.52037299
0.0220607 0.55024701 -0.52010697
-0.018846 0.55023402 -0.52002102
-0.0199425 0.55027002 -0.52012002
-0.0220121 0.55029202 -0.52025801
-0.0249628 0.55028301 -0.520441
-0.0271111 0.55039102 -0.52063799
-0.028468801 0.550731 -0.52078003
0.0194705 0.55068398 -0.51980603
0.017260799 0.55036598 -0.51945299
-0.0119997 0.55026698 -0.51906002
-0.0142492 0.55021101 -0.51947302
-0.0155245 0.55078298 -0.51979297
0.0131231 0.55051702 -0.518911
0.0115268 0.55080402 -0.518803
0.0089470996 0.55033702 -0.51821798
-0.0060446998 0.55025399 -0.51804
-0.0080241999 0.55035901 -0.51840198
-0.0093804998 0.55081302 -0.51882797
0.0071609002 0.55034697 -0.51800901
0.0059173 0.55065399 -0.518076
0.0046550999 0.55065602 -0.51796401
0.0035655999 0.55067903 -0.51789999
0.0016794 0.55055398 -0.51774597
0.000201 0.55082202 -0.51792902
-0.0014834 0.55068398 -0.51787001
-0.0028631 0.55006599 -0.51750398
-0.0037587001 0.55068302 -0.51804602
0.052812699 0.55092603 -0.65602201
0.0565781 0.55166698 -0.65605301
0.031967498 0.55131102 -0.65576899
0.0300954 0.55129999 -0.65569699
0.0290497 0.55165201 -0.65566802
0.0278273 0.55113202 -0.65555
-0.039953899 0.55154002 -0.65599298
0.026392899 0.55157202 -0.65529001
0.0232375 0.55131501 -0.65479201
0.053213801 0.551278 -0.65292299
-0.037361301 0.55148703 -0.65380502
-0.038205002 0.55144501 -0.65454799
0.0574999 0.55164099 -0.65295303
0.0191507 0.55121499 -0.65283298
0.058184601 0.55132699 -0.65168798
-0.054449499 0.55126297 -0.65130597
-0.055343501 0.55040699 -0.65071303
0.058895402 0.55102903 -0.65040898
0.0161437 0.55133802 -0.65051597
0.015109 0.55132401 -0.649575
-0.052372102 0.55170101 -0.65043199
-0.055174399 0.551516 -0.64978498
0.0141398 0.55137199 -0.64854401
-0.055735301 0.55131698 -0.648552
0.059537601 0.551754 -0.64815998
0.0132481 0.55146903 -0.64745599
0.060264502 0.55137998 -0.646698
0.0120487 0.55132598 -0.64558899
-0.056465399 0.55160099 -0.64588898
0.060692299 0.551768 -0.64509797
0.0111445 0.55143899 -0.64452702
-0.057093199 0.55125397 -0.64455998
0.061246399 0.55150503 -0.643812
0.0102336 0.55147898 -0.64347702
0.061727799 0.55121899 -0.64255702
0.0090616001 0.55161297 -0.64221901
-0.057399999 0.55156797 -0.64295602
-0.058019701 0.551085 -0.64161599
0.062526502 0.55132103 -0.638578
-0.058776502 0.55108303 -0.63835299
0.062926702 0.55083001 -0.63735503
0.062578402 0.55179602 -0.636576
-0.059241802 0.55121899 -0.63558197
0.062673599 0.55183601 -0.63500702
-0.059652999 0.55067998 -0.63437498
-0.059304699 0.55173302 -0.63338399
-0.0597178 0.550924 -0.63264501
-0.059573401 0.55160302 -0.63132501
-0.059539702 0.55189401 -0.63004601
0.063067399 0.55138099 -0.62883198
-0.059884999 0.55111098 -0.62774098
-0.060027301 0.55074602 -0.62648702
-0.0598954 0.55110699 -0.623254
-0.059620801 0.55180299 -0.62205499
-0.059923001 0.55101001 -0.62050998
0.062872097 0.55133498 -0.61953098
0.062495101 0.55189502 -0.61826497
-0.059938598 0.55102998 -0.61875802
0.062842503 0.55086702 -0.61756098
0.0625135 0.551364 -0.61649299
-0.060006499 0.55096102 -0.61631203
0.062206302 0.55164701 -0.61326301
-0.059964102 0.55113798 -0.613491
-0.0598999 0.55130798 -0.61169398
-0.0111104 0.551108 -0.61019099
-0.0117125 0.55108899 -0.6092
0.062472399 0.55130601 -0.608504
0.062834501 0.55064702 -0.60733902
-0.0122626 0.55130899 -0.60738999
-0.013468 0.55085403 -0.60713202
0.0625057 0.55169898 -0.606511
-0.0601307 0.55113298 -0.60665101
0.062829398 0.55117899 -0.60546398
-0.0131544 0.55145597 -0.605694
-0.0139662 0.55136597 -0.604536
-0.060044099 0.55137497 -0.604505
-0.0148436 0.55102801 -0.60350502
-0.0600923 0.55130398 -0.60256499
0.063189298 0.551534 -0.60137898
-0.015194 0.55148298 -0.60164499
0.0633296 0.55148602 -0.60025698
-0.0600067 0.55149001 -0.60059398
0.063691899 0.550789 -0.59902602
-0.0162376 0.55172598 -0.59980202
-0.017567299 0.55097902 -0.59933603
-0.0187549 0.551 -0.59802002
-0.060254298 0.55091602 -0.59852201
0.0637886 0.55084401 -0.59756601
-0.019280899 0.55136698 -0.59706402
-0.060077 0.55129898 -0.59741598
0.063553698 0.551718 -0.59639001
-0.0599011 0.55166 -0.59632099
0.063576303 0.551938 -0.59460998
-0.060067099 0.55121702 -0.59443998
0.063911296 0.551153 -0.59123802
-0.060049601 0.55121303 -0.59150302
-0.060045 0.551292 -0.59041399
0.063823201 0.55118102 -0.58839601
0.063561998 0.55177802 -0.58748198
0.063782603 0.55091 -0.58632803
-0.0599939 0.55167502 -0.58639997
0.0634849 0.55160397 -0.58544803
0.063671499 0.55080903 -0.58389002
-0.0601716 0.55113101 -0.58356398
0.063370302 0.551548 -0.58261198
-0.059997201 0.55162501 -0.58243799
0.0633642 0.551525 -0.58146697
-0.0601441 0.551274 -0.58047301
0.063708 0.55067998 -0.579225
-0.0602079 0.55115002 -0.57927102
0.063405402 0.55158502 -0.57838702
0.063701898 0.550879 -0.57749701
0.0634754 0.55158699 -0.57641602
-0.060239501 0.55141801 -0.57604498
0.063793398 0.55087203 -0.575517
0.063543499 0.551678 -0.57438701
0.063873798 0.55098099 -0.57340801
0.063552402 0.551952 -0.57257497
-0.060426399 0.55128402 -0.57237798
0.0638941 0.55130202 -0.57139498
-0.060336299 0.55159801 -0.57031602
0.064090498 0.55111098 -0.56968898
-0.060385998 0.551467 -0.56847203
0.0641305 0.55124199 -0.56731099
-0.060310699 0.551705 -0.56641799
0.064178199 0.55109102 -0.56512302
-0.060672499 0.550749 -0.56435502
0.064048499 0.55134302 -0.56357199
-0.0603985 0.55137199 -0.56337601
0.064174399 0.55110902 -0.56158698
0.064065598 0.55148602 -0.55914903
-0.06027 0.55142301 -0.55977499
-0.060249299 0.55141598 -0.55838603
0.064178802 0.551054 -0.557248
0.064082101 0.55116099 -0.55607599
0.063982598 0.551126 -0.55413502
-0.060284201 0.55146801 -0.553087
0.063854001 0.55119801 -0.55236799
0.063578703 0.55180401 -0.55140501
-0.060377602 0.551332 -0.55135697
0.063833296 0.55094397 -0.55024803
0.0635309 0.55165601 -0.54936701
-0.060392801 0.55132002 -0.54929698
0.063505501 0.55141801 -0.54730499
-0.060228001 0.55144799 -0.54567498
-0.060118299 0.55154097 -0.544496
0.063100301 0.55108303 -0.54332
-0.060113002 0.55131799 -0.54336399
0.0624258 0.55131501 -0.541282
-0.059834 0.551283 -0.54135197
-0.059358601 0.55164498 -0.540021
0.061774898 0.55120301 -0.539487
-0.058770798 0.55122 -0.53732502
-0.058196899 0.551516 -0.53609699
0.059771501 0.55117601 -0.53569102
0.058862802 0.55125803 -0.53443998
-0.057405099 0.551467 -0.53421801
0.058035001 0.55118901 -0.533369
0.057122301 0.55123502 -0.53237098
0.056148998 0.55138499 -0.53146499
-0.0554488 0.55163801 -0.53094101
0.053773101 0.55126703 -0.52960801
0.052527301 0.55138803 -0.52891701
-0.0545469 0.55174798 -0.52983701
0.051215399 0.551422 -0.52823597
0.049123202 0.55123001 -0.52711499
-0.051511701 0.55164701 -0.52703702
-0.052553002 0.55176997 -0.52786201
0.044994 0.55135298 -0.52530003
-0.048216499 0.55143899 -0.52507901
-0.049468599 0.55162299 -0.52578801
0.043604799 0.55175102 -0.52482498
0.042149998 0.55127198 -0.52425301
-0.046070099 0.55131203 -0.52421302
0.040587701 0.55167401 -0.52381903
0.0391475 0.55142599 -0.52339202
-0.043100201 0.551404 -0.52340102
-0.044582602 0.55094999 -0.52371901
0.036566898 0.55169302 -0.52279598
0.035154 0.55147398 -0.522434
0.0340124 0.551054 -0.52212203
-0.036964301 0.55119503 -0.52191401
-0.0391265 0.55144799 -0.52235699
0.0325015 0.551566 -0.52181202
0.0310321 0.55162102 -0.521492
0.0290785 0.55123401 -0.52110702
-0.030955501 0.55124497 -0.52105701
-0.0341736 0.55143398 -0.52152699
-0.035514399 0.55175799 -0.52176201
0.0264886 0.55161798 -0.52077699
0.0250249 0.55157799 -0.52059901
0.0230962 0.55127698 -0.52033198
0.0210598 0.55126703 -0.52009201
-0.0168733 0.55121201 -0.51999903
-0.0209914 0.55129701 -0.52032399
-0.022956099 0.551314 -0.520419
-0.0261054 0.55141401 -0.520639
-0.027463401 0.55174798 -0.520778
0.0183881 0.55161101 -0.519822
0.016377401 0.55120701 -0.519539
0.0152097 0.55136502 -0.51944798
0.0139281 0.55123699 -0.51925802
-0.0109017 0.551498 -0.51932597
-0.0130428 0.55122697 -0.51956099
-0.0143462 0.55165601 -0.51983899
0.0100903 0.55086601 -0.51863998
0.0090581002 0.55164897 -0.51886201
0.0072657 0.55193102 -0.518861
-0.0049025998 0.55125999 -0.51852697
-0.0059574 0.55179 -0.51890999
-0.0070453999 0.55166 -0.51894897
0.052044 0.55251998 -0.65607297
-0.037628502 0.55260599 -0.65604299
0.052655701 0.55176902 -0.65531301
0.034122702 0.552324 -0.65601099
0.0300129 0.55244601 -0.65573001
0.028250299 0.55246902 -0.655608
0.025199899 0.55240899 -0.655209
-0.038993798 0.55250198 -0.65586102
0.056540001 0.55241799 -0.654728
0.023466701 0.55282003 -0.65503401
0.022179401 0.55224597 -0.65463001
-0.037214901 0.55233902 -0.65488601
0.052841298 0.55246502 -0.65343702
0.020688299 0.55190599 -0.653961
0.019367101 0.55268002 -0.65334499
-0.0354212 0.55278599 -0.65382802
0.018148599 0.55217803 -0.65235001
0.0574614 0.55260301 -0.65192997
0.052852299 0.55259001 -0.65213901
0.017024999 0.55228502 -0.65154201
-0.0533983 0.55220598 -0.65124398
0.058165502 0.55245602 -0.6505
0.0153185 0.552535 -0.65036899
-0.054373201 0.55227399 -0.65048802
0.058903001 0.55198902 -0.64935303
0.0142588 0.55248499 -0.649414
-0.051421899 0.55231798 -0.64969301
-0.055118099 0.55236 -0.64865702
0.0132801 0.552499 -0.64840603
-0.055652399 0.552122 -0.64748001
0.0595234 0.55276102 -0.64708298
0.0119746 0.55226499 -0.64663601
0.0111212 0.55222303 -0.64552999
0.0105942 0.55311602 -0.64602798
0.0101674 0.55242503 -0.64457101
-0.0564682 0.55235499 -0.644593
0.060648799 0.55273402 -0.64401799
0.0092313997 0.55245501 -0.64339602
0.061200202 0.552432 -0.64268899
-0.056602299 0.55299503 -0.64285702
0.061739199 0.55200398 -0.64129698
0.0084416997 0.55261201 -0.64264101
-0.057238098 0.55243897 -0.64170301
-0.057728201 0.55220002 -0.64042902
0.0620174 0.55211198 -0.63974202
-0.058187298 0.55220801 -0.63860101
0.062189002 0.55249602 -0.63737601
-0.058624301 0.551907 -0.63725698
-0.058468401 0.55286801 -0.63546199
-0.0588907 0.552311 -0.63449699
0.062755302 0.55181098 -0.63354099
0.062422 0.55251002 -0.63253498
-0.0590716 0.55246198 -0.632577
0.0628253 0.55179501 -0.63082403
0.062401399 0.55265099 -0.62942702
0.062534802 0.55243999 -0.62831801
-0.059377801 0.552414 -0.628672
0.062702 0.55217099 -0.62652898
-0.059663001 0.55176198 -0.626719
-0.059522301 0.55213398 -0.62555301
0.062825501 0.55193299 -0.62452602
-0.059642199 0.551826 -0.62448198
0.062504001 0.55254501 -0.62364501
-0.059423599 0.55234897 -0.62350202
0.062876701 0.55170798 -0.62246603
0.062762 0.55183399 -0.62121099
-0.059330299 0.55250603 -0.62071198
0.062413201 0.552342 -0.61949903
-0.059540398 0.55198902 -0.61935103
-0.059528898 0.55199099 -0.61777198
-0.059560198 0.55191803 -0.61665398
0.062129401 0.55204898 -0.61535501
-0.059689999 0.551673 -0.61539102
-0.0593208 0.55239499 -0.61463201
-0.059123602 0.552755 -0.61353898
-0.059315398 0.55239099 -0.61240399
0.062053401 0.55201697 -0.61174601
-0.059549298 0.55199099 -0.61082101
0.062045801 0.55216199 -0.609873
-0.0592275 0.552634 -0.609469
-0.0107731 0.55176902 -0.608172
-0.059374802 0.552441 -0.60837901
0.062160201 0.55230498 -0.60747802
-0.0101935 0.55220801 -0.60645097
-0.0116072 0.55194598 -0.60605699
-0.059369698 0.55256498 -0.60613298
0.0623364 0.552477 -0.60530102
0.062752798 0.55181599 -0.60408902
-0.0097925998 0.55291402 -0.604909
-0.0120546 0.55242097 -0.60454601
-0.059467401 0.55246103 -0.60431701
-0.0129845 0.55233502 -0.60352802
0.062831901 0.55215102 -0.60244203
-0.0138735 0.55217898 -0.60241199
-0.059274599 0.55285603 -0.60245103
-0.059457202 0.55255997 -0.60133803
-0.0149103 0.55233198 -0.60056502
-0.0594257 0.55265701 -0.60009599
0.063188396 0.55230498 -0.59843302
-0.0170133 0.55229598 -0.59848899
-0.059462301 0.55258203 -0.59847403
0.063186102 0.55253702 -0.59724802
-0.0181619 0.55239397 -0.59733599
-0.059284098 0.55290699 -0.597408
-0.059374399 0.55270702 -0.59552598
0.063473403 0.55234498 -0.59337699
-0.059548799 0.55233401 -0.593472
-0.059771299 0.55185097 -0.59247601
0.063332699 0.55281198 -0.59141099
-0.059394401 0.55273801 -0.59135598
0.063688703 0.55177599 -0.589809
-0.059687 0.55223501 -0.58941698
0.063391499 0.55245298 -0.58868402
-0.059929602 0.55175602 -0.58836401
-0.059487101 0.55277598 -0.58745199
0.063206397 0.55255097 -0.58663899
-0.059820499 0.552068 -0.58539099
0.0631622 0.55229598 -0.58443201
-0.059580799 0.55260497 -0.58428901
-0.059522599 0.55279702 -0.582748
0.0631532 0.55211002 -0.58052599
0.063110404 0.55227 -0.57939702
-0.0599165 0.55212402 -0.57878
0.063154303 0.55229503 -0.57739103
-0.059962999 0.55219698 -0.576774
0.063211501 0.55237597 -0.57538402
-0.060028799 0.55224299 -0.57479101
-0.0600124 0.55239201 -0.57360297
0.063539296 0.55236202 -0.57046998
0.063503496 0.55259699 -0.569327
0.063812703 0.55197001 -0.56836498
0.063717499 0.55226099 -0.56728798
-0.0600514 0.552351 -0.567375
0.0635278 0.55268103 -0.56546599
-0.060071301 0.55226803 -0.565359
0.063650697 0.55234599 -0.56334001
-0.060027301 0.55220401 -0.56239098
0.063510403 0.55277401 -0.56127602
-0.060029 0.552136 -0.56110299
0.063561201 0.55268103 -0.55944598
-0.059849299 0.552495 -0.55842
0.063540801 0.55263299 -0.55751801
-0.059948601 0.55220801 -0.55731702
-0.059989899 0.55208701 -0.55608898
0.0634766 0.55259299 -0.55537301
0.063499302 0.55241102 -0.55428702
-0.059942901 0.55222201 -0.554304
0.063374802 0.55248803 -0.55257499
0.063226402 0.55257303 -0.55053103
-0.0599479 0.55233502 -0.55067599
0.063211702 0.552338 -0.54838002
-0.0600738 0.55204701 -0.54851699
-0.0599459 0.552288 -0.547171
0.063172899 0.552086 -0.54623699
0.063019603 0.55219197 -0.54513597
0.0624763 0.55258799 -0.54299402
-0.0594173 0.55287802 -0.54303801
-0.059348401 0.55234301 -0.54130399
0.061842401 0.552194 -0.54042101
0.061287701 0.552414 -0.53922099
-0.058807001 0.55196398 -0.53858697
0.060759101 0.55185097 -0.53775698
-0.058144402 0.552571 -0.53734797
0.059980098 0.55209398 -0.53648102
0.0591988 0.552311 -0.53533298
-0.057411298 0.55240297 -0.53512901
0.058389001 0.55226898 -0.53419799
0.057384301 0.55250102 -0.53306103
-0.056735702 0.55223 -0.53346503
0.056360401 0.55234098 -0.53193998
-0.056079298 0.55229503 -0.532305
0.0552723 0.55231303 -0.530949
0.0541877 0.55239898 -0.53013498
0.053170301 0.55227602 -0.52945697
0.050334301 0.55240899 -0.52796799
-0.0535734 0.55179298 -0.52879
0.048441801 0.552553 -0.52702099
0.046994001 0.55238998 -0.52631199
0.0456229 0.55278099 -0.52578598
-0.0473397 0.55260199 -0.52499002
0.042040501 0.55247802 -0.52439201
-0.045141801 0.55214 -0.52410197
0.0389769 0.55255401 -0.52352101
-0.0420499 0.552275 -0.52328998
0.034977801 0.55258101 -0.52253002
-0.038007502 0.55232698 -0.522264
-0.040540401 0.55180198 -0.52276403
0.030108999 0.55240798 -0.52138501
0.0280753 0.552194 -0.52103299
-0.0288365 0.55211598 -0.52091902
-0.0299551 0.55224001 -0.52103502
-0.032081101 0.55235398 -0.52131802
-0.033195902 0.55245697 -0.52149802
0.0255385 0.55274802 -0.52077502
0.0241854 0.55243403 -0.52057999
0.022084 0.55228001 -0.52031302
0.020050401 0.55226898 -0.52009702
0.017260199 0.55255502 -0.51987702
-0.0132068 0.55254298 -0.51990801
-0.015838699 0.55217701 -0.52006203
-0.0180091 0.55229199 -0.520244
-0.019975901 0.55230403 -0.52038401
-0.0219837 0.55234098 -0.52047902
-0.024076501 0.55230099 -0.52056903
-0.026471 0.55277503 -0.52077699
0.0155134 0.55276901 -0.51978803
0.0132111 0.55237901 -0.51949197
0.0120943 0.55230302 -0.51936698
0.0109588 0.55219603 -0.51922703
0.0060673999 0.55230999 -0.518938
-0.0047575999 0.55242503 -0.51911098
-0.0080295 0.55227 -0.51931101
-0.0091618998 0.55202502 -0.51932198
-0.0114682 0.55276102 -0.51980102
0.0050067999 0.55174899 -0.51862198
0.0041438998 0.55264097 -0.51896101
0.0025822001 0.55194402 -0.51859498
0.0014625 0.55190003 -0.51855803
0.0001948 0.55182803 -0.51852101
-0.0010832 0.552073 -0.51867402
-0.0021832001 0.55199897 -0.5187
-0.0035425001 0.55176401 -0.51869297
0.051463701 0.553599 -0.65611303
0.055919699 0.55316597 -0.65607798
0.033107899 0.55353498 -0.655927
0.032118902 0.55284101 -0.65582001
0.027246799 0.55343902 -0.65551102
-0.036857601 0.55348003 -0.655711
0.052124299 0.553231 -0.65480202
0.0221543 0.55349702 -0.654814
0.020723 0.55363899 -0.65429598
-0.0360315 0.553473 -0.65449601
0.056320999 0.55347598 -0.653862
-0.033354599 0.55412602 -0.65420997
0.052484699 0.553482 -0.65301198
0.018017501 0.55322802 -0.65261799
0.0162182 0.55343801 -0.65148097
0.057427902 0.55362201 -0.65094697
0.052058801 0.55368698 -0.65136302
-0.0521047 0.55361098 -0.65059298
0.058152501 0.55331802 -0.649616
0.0144137 0.55362201 -0.65025002
-0.054262899 0.55333298 -0.64934802
0.0588868 0.55297798 -0.64831197
0.0133458 0.55355197 -0.64932102
-0.050503701 0.55373198 -0.64951801
0.0119919 0.55320901 -0.64768898
-0.054937799 0.55325502 -0.64766002
0.0106277 0.55387503 -0.647017
-0.055638101 0.552908 -0.646218
0.059865799 0.55329698 -0.64558703
0.0091035003 0.55337501 -0.64452398
0.0081947995 0.55338103 -0.643525
0.0605915 0.553666 -0.64292502
0.061148401 0.55331302 -0.641518
-0.056587499 0.55356002 -0.64164197
-0.0570588 0.55327499 -0.64048201
0.061480701 0.55349702 -0.63955498
-0.0575401 0.55299401 -0.639359
0.0618058 0.55312198 -0.63842201
-0.0579249 0.55314201 -0.63747299
0.062030599 0.55310398 -0.63577801
0.062055498 0.55312997 -0.634601
-0.058527999 0.55331898 -0.63364899
0.0621599 0.55304903 -0.63128603
-0.058861099 0.553123 -0.63169599
-0.058866099 0.553325 -0.63060999
0.062138598 0.55323702 -0.62723202
-0.059026401 0.55322301 -0.62753803
0.0621555 0.55323899 -0.62595099
-0.058953501 0.55343401 -0.625826
-0.059007399 0.55335099 -0.62373102
0.062119901 0.553258 -0.62255698
-0.059115801 0.55306298 -0.62239403
0.062075399 0.55324799 -0.62118602
-0.058989801 0.55320799 -0.61925697
0.061898701 0.55323797 -0.61859298
0.061472099 0.55388701 -0.61729199
-0.058886599 0.55332601 -0.61747998
0.061829701 0.55298001 -0.61656702
0.0614575 0.55362898 -0.61554301
-0.058740102 0.55359501 -0.61578602
0.061712202 0.55291402 -0.614447
0.061382301 0.55360198 -0.61355299
0.0616864 0.55288303 -0.61249602
-0.058689199 0.55360502 -0.61133099
0.061431501 0.55354297 -0.61052603
-0.058575202 0.55384898 -0.60999298
0.061797801 0.55296099 -0.60847902
0.061452799 0.55389601 -0.60772401
-0.058823898 0.553451 -0.60763299
0.061859101 0.55328298 -0.606457
-0.0108512 0.55315298 -0.60426199
0.062198799 0.55337298 -0.60356498
-0.0118519 0.55319703 -0.60333699
0.062251002 0.55360198 -0.60247898
-0.0127769 0.553078 -0.60226899
0.0627442 0.55282098 -0.60108697
-0.007855 0.55357802 -0.60127997
-0.0136835 0.55299598 -0.60114902
-0.0063196002 0.55340302 -0.60032499
-0.0126282 0.55387598 -0.60102397
0.062866002 0.55291802 -0.599455
-0.0046794 0.55374902 -0.59969097
-0.0149607 0.55315101 -0.59942698
0.0625 0.55397302 -0.59868503
-0.0159357 0.55316699 -0.59862798
-0.0173871 0.55346698 -0.59761202
0.063055098 0.55311501 -0.59571397
-0.059029501 0.55346 -0.59230399
-0.059173401 0.55329299 -0.59028202
-0.059200499 0.55334198 -0.58863097
-0.059178501 0.55346298 -0.58650601
0.062830701 0.55324501 -0.58551502
0.062530898 0.55376399 -0.58449501
0.0628227 0.55300897 -0.583417
0.062834203 0.55291498 -0.58232999
-0.059627399 0.55269098 -0.58115399
0.062510401 0.55365902 -0.580446
-0.059315201 0.55353099 -0.58001602
0.062829003 0.55300802 -0.57840401
-0.059354901 0.55361003 -0.57835102
0.062571302 0.55373102 -0.57736099
-0.059666 0.55294198 -0.57752401
0.062893197 0.55304098 -0.57640499
-0.0594416 0.553608 -0.57632601
0.062576696 0.55395198 -0.57563102
0.062895499 0.553307 -0.574444
-0.059426699 0.55378199 -0.57450002
0.063075297 0.55312002 -0.57270497
-0.059766602 0.55307901 -0.57260001
0.063178197 0.553047 -0.57156497
-0.059806 0.55300301 -0.57146299
-0.0598175 0.55298299 -0.57036501
-0.059490599 0.55368698 -0.569359
0.063210398 0.553334 -0.56839103
-0.059773099 0.55305499 -0.56833398
-0.059361901 0.55392897 -0.567164
0.063213699 0.55339098 -0.56677902
-0.059730399 0.55308598 -0.56629401
-0.059829999 0.55276799 -0.564273
-0.059514198 0.55341703 -0.56337398
0.063179798 0.553496 -0.56222802
-0.059328999 0.55375302 -0.56147999
0.063193299 0.55350298 -0.56007397
-0.059509099 0.55334401 -0.560381
-0.059365399 0.55365402 -0.55932403
-0.059338901 0.55367398 -0.55743802
0.063140497 0.55344802 -0.55652797
-0.059641201 0.55291802 -0.555457
-0.0593669 0.55348003 -0.55359298
-0.059721701 0.55274701 -0.55260998
-0.059262302 0.55370402 -0.55228901
-0.059339799 0.55360299 -0.55098099
0.062875003 0.55326098 -0.549411
-0.059707601 0.55288899 -0.54927897
0.062562399 0.55383199 -0.54832298
-0.059628502 0.55306 -0.54804999
0.062873803 0.55299699 -0.54734302
0.062520303 0.55363101 -0.54631197
-0.0596832 0.55285197 -0.54623902
0.062505603 0.55343598 -0.545241
-0.059634801 0.55277598 -0.54474401
0.0618347 0.55316103 -0.54137301
0.061318502 0.55345601 -0.54017001
-0.058759399 0.55317003 -0.540447
-0.058338098 0.55335599 -0.53926098
0.060501002 0.55338597 -0.53825301
0.0593227 0.55351698 -0.53615999
-0.0572634 0.55348998 -0.53605402
0.0584937 0.553675 -0.53496999
-0.056753099 0.55316502 -0.53438097
0.0576047 0.553774 -0.53384399
-0.0561364 0.55335701 -0.53325802
0.055638898 0.55378401 -0.53176802
-0.055044901 0.55321097 -0.53135598
0.0545693 0.55375201 -0.53083098
0.053453401 0.55364299 -0.529984
-0.054155901 0.553312 -0.53025198
0.052246701 0.55335301 -0.52918702
-0.0531963 0.55337501 -0.52919
-0.052121099 0.55322099 -0.52808303
0.049568001 0.55372202 -0.52784598
-0.051008102 0.553294 -0.52722001
0.047582299 0.55375701 -0.52685899
-0.049876001 0.55304903 -0.52642798
0.044031501 0.55341798 -0.52525598
-0.048618998 0.5528 -0.52567703
0.042630099 0.55374902 -0.524795
0.041112199 0.55329198 -0.52423698
-0.045006201 0.55330902 -0.52431297
-0.046408601 0.55375701 -0.52490598
0.039460599 0.55364698 -0.52382898
0.038164198 0.55341399 -0.52345699
0.0370638 0.55313498 -0.52313399
-0.041032001 0.55328298 -0.52321303
-0.042539898 0.55383199 -0.52375799
-0.043515299 0.55282402 -0.52380198
0.035530601 0.55366403 -0.52282399
0.034179401 0.55344403 -0.52244699
0.033034299 0.55315602 -0.52212501
-0.035889301 0.55312502 -0.52199697
-0.037026301 0.55328703 -0.52222002
-0.038128 0.55343902 -0.52246398
-0.039580598 0.55289 -0.52272499
0.031622801 0.55285102 -0.52174199
0.0291456 0.55335099 -0.52132398
0.026955299 0.55310303 -0.52098
-0.0278462 0.55312097 -0.52091902
-0.0289634 0.55323702 -0.52102798
-0.0310911 0.55335999 -0.52129799
-0.032212701 0.55347598 -0.52147901
-0.0345442 0.55278897 -0.52174199
0.0245494 0.55375302 -0.52077299
0.0232119 0.553415 -0.52056599
0.021079401 0.553289 -0.52031499
0.0190451 0.553258 -0.52012497
-0.0148973 0.55328602 -0.52016097
-0.0169915 0.55330998 -0.520298
-0.018973401 0.553312 -0.52043599
-0.0210624 0.553339 -0.52054203
-0.0221861 0.55341601 -0.52059001
-0.0233193 0.55323601 -0.52061498
-0.025033601 0.55326802 -0.52070701
0.0143339 0.55361599 -0.51983899
0.0104526 0.55320901 -0.51946902
0.0092489002 0.55342102 -0.519449
0.0081043001 0.553312 -0.51936102
0.0026127 0.55335802 -0.51920199
0.00095469999 0.55334401 -0.51919001
-0.00077679998 0.55361199 -0.51931298
-0.0028347999 0.55340302 -0.51933199
-0.0062374999 0.55309802 -0.51950198
-0.0074534002 0.55376399 -0.519804
-0.0089405999 0.55367899 -0.519858
-0.0100201 0.55341399 -0.51985502
0.055327799 0.55448401 -0.65601897
0.0339703 0.55419898 -0.65603101
0.0312232 0.55428201 -0.65588099
0.029038001 0.55429798 -0.655729
0.026180301 0.55441099 -0.65543997
0.0250821 0.55421197 -0.65534502
0.0233161 0.55419499 -0.65514803
-0.039446302 0.55356598 -0.65595502
0.055812798 0.55410898 -0.65467298
0.0515435 0.55439198 -0.65486997
-0.033254899 0.55516702 -0.65464097
0.0197189 0.55432397 -0.653965
0.0182618 0.55444098 -0.65324402
-0.0321608 0.55444098 -0.65352702
-0.034395799 0.553774 -0.65417397
-0.035287 0.55446398 -0.65442598
0.056277499 0.55444503 -0.65271002
0.0171482 0.554371 -0.65257299
0.0152699 0.55448103 -0.65141499
-0.051851701 0.55474699 -0.65091097
-0.053609401 0.55326098 -0.65066499
0.057411801 0.55462801 -0.64995801
0.013434 0.55464399 -0.65021402
0.058130398 0.55430198 -0.64862299
0.0119993 0.55419397 -0.64869303
-0.0493786 0.55471897 -0.64911199
-0.054056998 0.55416203 -0.64860302
0.058857299 0.55398399 -0.647282
-0.0544197 0.55458498 -0.646936
0.059253398 0.55448997 -0.64576697
0.0096212002 0.55392802 -0.64596999
-0.055067699 0.55427498 -0.64559901
0.059809498 0.554268 -0.64454502
0.0080580004 0.554133 -0.64457101
0.0074093998 0.55495203 -0.64522099
-0.055688601 0.55395198 -0.64423603
0.0069379001 0.55411601 -0.64359403
-0.055939302 0.55424398 -0.64271301
0.0604816 0.55459702 -0.64184302
-0.056349099 0.55447203 -0.64045298
-0.0568728 0.55406702 -0.63931602
0.061182301 0.55445302 -0.63848299
0.061663799 0.55374098 -0.63707
-0.0571279 0.554371 -0.63766801
-0.057686701 0.554052 -0.63626403
0.0613546 0.55445498 -0.63559997
-0.057922699 0.55421197 -0.63468599
0.0612575 0.554694 -0.63343698
0.0617061 0.55387002 -0.63278103
-0.058169499 0.554313 -0.63269699
0.061381999 0.55451798 -0.63119602
-0.058163799 0.55459201 -0.63156402
0.061728202 0.55392998 -0.62952101
-0.058757 0.55370599 -0.62924802
0.0614255 0.554573 -0.62830102
-0.058436699 0.55441201 -0.62828898
0.0614921 0.55453199 -0.62620199
-0.058451101 0.554519 -0.62609601
0.06182 0.55391198 -0.62449402
-0.058425002 0.55466002 -0.624479
0.061754402 0.55403101 -0.623344
-0.058457799 0.55459601 -0.622832
0.061443299 0.55459398 -0.62183398
-0.058736101 0.55391002 -0.62154901
0.061375499 0.55462801 -0.620682
-0.0583537 0.55471098 -0.62078297
0.0618059 0.55364102 -0.61982399
-0.058442701 0.554447 -0.61953598
0.061349198 0.55441201 -0.61874902
-0.0583409 0.554591 -0.61760497
0.0610957 0.55430001 -0.61453301
-0.058449 0.55425501 -0.61447603
-0.0586292 0.55376399 -0.61300802
